ply
format ascii 1.0
comment PCL generated
obj_info is_cyberware_data 0
obj_info is_mesh 0
obj_info is_warped 0
obj_info is_interlaced 0
obj_info num_cols 22027
obj_info num_rows 1
obj_info echo_rgb_offset_x 0
obj_info echo_rgb_offset_y 0
obj_info echo_rgb_offset_z 0
obj_info echo_rgb_frontfocus 0.0
obj_info echo_rgb_backfocus 0.0
obj_info echo_rgb_pixelsize 0.0
obj_info echo_rgb_centerpixel 0
obj_info echo_frames 1
obj_info echo_lgincr 0.0
element vertex 952
property float x
property float y
property float z
property uchar red
property uchar green
property uchar blue
property uint label
end_header
0.767378 -0.269255 -2.52445 204 182 121 1752393037
0.768796 -0.256265 -2.52911 204 182 121 1752393037
0.770219 -0.243227 -2.5338 204 182 121 1752393037
0.771647 -0.23014 -2.53849 204 182 121 1752393037
0.773081 -0.217005 -2.54321 204 182 121 1752393037
0.77452 -0.203821 -2.54795 204 182 121 1752393037
0.775964 -0.190588 -2.5527 204 182 121 1752393037
0.777414 -0.177305 -2.55747 204 182 121 1752393037
0.778869 -0.163972 -2.56225 204 182 121 1752393037
0.78033 -0.15059 -2.56706 204 182 121 1752393037
0.781796 -0.137157 -2.57188 204 182 121 1752393037
0.783268 -0.123674 -2.57672 204 182 121 1752393037
0.784745 -0.11014 -2.58158 204 182 121 1752393037
0.786228 -0.096554 -2.58646 204 182 121 1752393037
0.787716 -0.082917 -2.59136 204 182 121 1752393037
0.78921 -0.069229 -2.59627 204 182 121 1752393037
0.79071 -0.055488 -2.6012 204 182 121 1752393037
0.792215 -0.041696 -2.60616 204 182 121 1752393037
0.793726 -0.02785 -2.61113 204 182 121 1752393037
0.795243 -0.013952 -2.61612 204 182 121 1752393037
0.796766 0 -2.62113 204 182 121 1752393037
0.798295 0.014005 -2.62616 204 182 121 1752393037
0.799829 0.028064 -2.63121 204 182 121 1752393037
0.80137 0.042177 -2.63627 204 182 121 1752393037
0.802916 0.056345 -2.64136 204 182 121 1752393037
0.804468 0.070567 -2.64647 204 182 121 1752393037
0.806027 0.084845 -2.65159 204 182 121 1752393037
0.807591 0.099178 -2.65674 204 182 121 1752393037
0.809161 0.113567 -2.66191 204 182 121 1752393037
0.810738 0.128011 -2.66709 204 182 121 1752393037
0.812321 0.142512 -2.6723 204 182 121 1752393037
0.81391 0.15707 -2.67753 204 182 121 1752393037
0.815505 0.171685 -2.68277 204 182 121 1752393037
0.817106 0.186358 -2.68804 204 182 121 1752393037
0.818714 0.201088 -2.69333 204 182 121 1752393037
0.820328 0.215876 -2.69864 204 182 121 1752393037
0.821949 0.230722 -2.70397 204 182 121 1752393037
0.823575 0.245628 -2.70932 204 182 121 1752393037
0.825209 0.260592 -2.7147 204 182 121 1752393037
0.826849 0.275616 -2.72009 204 182 121 1752393037
0.828495 0.2907 -2.72551 204 182 121 1752393037
0.830148 0.305844 -2.73094 204 182 121 1752393037
0.831807 0.321048 -2.7364 204 182 121 1752393037
0.833474 0.336314 -2.74188 204 182 121 1752393037
0.835146 0.351641 -2.74739 204 182 121 1752393037
0.836826 0.367029 -2.75291 204 182 121 1752393037
0.838512 0.382479 -2.75846 204 182 121 1752393037
0.840205 0.397992 -2.76403 204 182 121 1752393037
0.841906 0.413568 -2.76962 204 182 121 1752393037
0.843612 0.429206 -2.77524 204 182 121 1752393037
0.845326 0.444908 -2.78088 204 182 121 1752393037
0.847047 0.460675 -2.78654 204 182 121 1752393037
0.848775 0.476505 -2.79222 204 182 121 1752393037
0.85051 0.4924 -2.79793 204 182 121 1752393037
0.852252 0.508361 -2.80366 204 182 121 1752393037
0.854001 0.524387 -2.80941 204 182 121 1752393037
0.855757 0.540478 -2.81519 204 182 121 1752393037
0.857521 0.556636 -2.82099 204 182 121 1752393037
0.859292 0.572861 -2.82682 204 182 121 1752393037
0.86107 0.589153 -2.83267 204 182 121 1752393037
0.862855 0.605513 -2.83854 204 182 121 1752393037
0.864649 0.62194 -2.84444 204 182 121 1752393037
0.866449 0.638436 -2.85036 204 182 121 1752393037
0.868257 0.655001 -2.85631 204 182 121 1752393037
0.870072 0.671635 -2.86228 204 182 121 1752393037
0.871896 0.688339 -2.86828 204 182 121 1752393037
0.873726 0.705113 -2.87431 204 182 121 1752393037
0.875565 0.721957 -2.88035 204 182 121 1752393037
0.877411 0.738873 -2.88643 204 182 121 1752393037
0.879265 0.75586 -2.89253 204 182 121 1752393037
0.881206 0.772988 -2.89891 204 182 121 1752393037
0.884425 0.791327 -2.9095 204 182 121 1752393037
0.887667 0.809801 -2.92017 204 182 121 1752393037
0.890933 0.828411 -2.93091 204 182 121 1752393037
0.894223 0.847159 -2.94173 204 182 121 1752393037
0.897538 0.866045 -2.95264 204 182 121 1752393037
0.900877 0.885072 -2.96362 204 182 121 1752393037
0.904241 0.904241 -2.97469 204 182 121 1752393037
0.907631 0.923554 -2.98584 204 182 121 1752393037
0.911046 0.943012 -2.99708 204 182 121 1752393037
0.914486 0.962617 -3.00839 204 182 121 1752393037
0.917953 0.982371 -3.0198 204 182 121 1752393037
0.921447 1.00227 -3.03129 204 182 121 1752393037
0.924966 1.02233 -3.04287 204 182 121 1752393037
0.928513 1.04254 -3.05454 204 182 121 1752393037
0.932088 1.06291 -3.0663 204 182 121 1752393037
0.93569 1.08343 -3.07815 204 182 121 1752393037
0.590403 -0.766758 -1.91703 158 89 42 1752393037
0.592179 -0.75881 -1.9228 158 89 42 1752393037
0.593966 -0.750815 -1.9286 158 89 42 1752393037
0.595764 -0.742771 -1.93444 158 89 42 1752393037
0.597573 -0.734678 -1.94031 158 89 42 1752393037
0.599392 -0.726536 -1.94622 158 89 42 1752393037
0.601223 -0.718344 -1.95216 158 89 42 1752393037
0.603065 -0.710102 -1.95814 158 89 42 1752393037
0.604918 -0.70181 -1.96416 158 89 42 1752393037
0.606783 -0.693466 -1.97021 158 89 42 1752393037
0.608659 -0.685071 -1.97631 158 89 42 1752393037
0.610547 -0.676623 -1.98244 158 89 42 1752393037
0.612446 -0.668123 -1.9886 158 89 42 1752393037
0.614358 -0.65957 -1.99481 158 89 42 1752393037
0.616281 -0.650963 -2.00106 158 89 42 1752393037
0.618217 -0.642303 -2.00734 158 89 42 1752393037
0.620164 -0.633587 -2.01366 158 89 42 1752393037
0.622123 -0.624817 -2.02003 158 89 42 1752393037
0.624096 -0.615991 -2.02643 158 89 42 1752393037
0.626081 -0.607109 -2.03288 158 89 42 1752393037
0.628079 -0.59817 -2.03936 158 89 42 1752393037
0.630089 -0.589175 -2.04589 158 89 42 1752393037
0.632113 -0.580121 -2.05246 158 89 42 1752393037
0.634149 -0.571008 -2.05907 158 89 42 1752393037
0.636198 -0.561837 -2.06573 158 89 42 1752393037
0.733385 -0.634966 -2.38129 204 182 121 1752393037
0.734663 -0.623351 -2.38544 204 182 121 1752393037
0.735946 -0.611695 -2.38961 204 182 121 1752393037
0.737233 -0.599999 -2.39378 204 182 121 1752393037
0.738524 -0.588262 -2.39798 204 182 121 1752393037
0.73982 -0.576483 -2.40219 204 182 121 1752393037
0.741121 -0.564664 -2.40641 204 182 121 1752393037
0.742426 -0.552802 -2.41065 204 182 121 1752393037
0.743736 -0.540899 -2.4149 204 182 121 1752393037
0.74505 -0.528953 -2.41917 204 182 121 1752393037
0.746369 -0.516966 -2.42345 204 182 121 1752393037
0.747693 -0.504936 -2.42775 204 182 121 1752393037
0.749022 -0.492863 -2.43206 204 182 121 1752393037
0.750355 -0.480747 -2.43639 204 182 121 1752393037
0.751693 -0.468588 -2.44074 204 182 121 1752393037
0.753035 -0.456385 -2.4451 204 182 121 1752393037
0.754383 -0.444139 -2.44947 204 182 121 1752393037
0.755735 -0.431849 -2.45386 204 182 121 1752393037
0.757093 -0.419514 -2.45827 204 182 121 1752393037
0.758455 -0.407136 -2.46269 204 182 121 1752393037
0.759822 -0.394713 -2.46713 204 182 121 1752393037
0.761194 -0.382244 -2.47158 204 182 121 1752393037
0.76257 -0.369731 -2.47605 204 182 121 1752393037
0.763952 -0.357173 -2.48054 204 182 121 1752393037
0.765339 -0.344568 -2.48504 204 182 121 1752393037
0.766731 -0.331918 -2.48956 204 182 121 1752393037
0.768128 -0.319222 -2.4941 204 182 121 1752393037
0.76953 -0.30648 -2.49865 204 182 121 1752393037
0.770938 -0.293691 -2.50322 204 182 121 1752393037
0.77235 -0.280855 -2.50781 204 182 121 1752393037
0.773768 -0.267971 -2.51241 204 182 121 1752393037
0.77519 -0.255041 -2.51703 204 182 121 1752393037
0.776618 -0.242063 -2.52167 204 182 121 1752393037
0.778052 -0.229037 -2.52632 204 182 121 1752393037
0.77949 -0.215963 -2.53099 204 182 121 1752393037
0.780934 -0.20284 -2.53568 204 182 121 1752393037
0.782384 -0.189669 -2.54039 204 182 121 1752393037
0.783838 -0.176448 -2.54511 204 182 121 1752393037
0.785298 -0.163179 -2.54985 204 182 121 1752393037
0.786764 -0.14986 -2.55461 204 182 121 1752393037
0.788235 -0.136491 -2.55939 204 182 121 1752393037
0.789712 -0.123072 -2.56418 204 182 121 1752393037
0.791194 -0.109603 -2.56899 204 182 121 1752393037
0.792681 -0.096083 -2.57382 204 182 121 1752393037
0.794175 -0.082512 -2.57867 204 182 121 1752393037
0.795674 -0.068889 -2.58354 204 182 121 1752393037
0.797178 -0.055216 -2.58842 204 182 121 1752393037
0.798688 -0.04149 -2.59333 204 182 121 1752393037
0.800204 -0.027713 -2.59825 204 182 121 1752393037
0.801726 -0.013883 -2.60319 204 182 121 1752393037
0.803254 0 -2.60815 204 182 121 1752393037
0.804787 0.013936 -2.61313 204 182 121 1752393037
0.806327 0.027925 -2.61813 204 182 121 1752393037
0.807872 0.041967 -2.62315 204 182 121 1752393037
0.809423 0.056064 -2.62818 204 182 121 1752393037
0.81098 0.070215 -2.63324 204 182 121 1752393037
0.812543 0.08442 -2.63831 204 182 121 1752393037
0.814112 0.09868 -2.64341 204 182 121 1752393037
0.815687 0.112996 -2.64852 204 182 121 1752393037
0.817269 0.127367 -2.65366 204 182 121 1752393037
0.818856 0.141793 -2.65881 204 182 121 1752393037
0.82045 0.156276 -2.66399 204 182 121 1752393037
0.822049 0.170815 -2.66918 204 182 121 1752393037
0.823656 0.185412 -2.6744 204 182 121 1752393037
0.825268 0.200065 -2.67963 204 182 121 1752393037
0.826887 0.214776 -2.68489 204 182 121 1752393037
0.828512 0.229544 -2.69017 204 182 121 1752393037
0.830143 0.244371 -2.69546 204 182 121 1752393037
0.831781 0.259256 -2.70078 204 182 121 1752393037
0.833425 0.274201 -2.70612 204 182 121 1752393037
0.835076 0.289204 -2.71148 204 182 121 1752393037
0.836734 0.304267 -2.71686 204 182 121 1752393037
0.838398 0.31939 -2.72227 204 182 121 1752393037
0.840068 0.334573 -2.72769 204 182 121 1752393037
0.841746 0.349816 -2.73314 204 182 121 1752393037
0.84343 0.365121 -2.7386 204 182 121 1752393037
0.845121 0.380487 -2.74409 204 182 121 1752393037
0.846818 0.395915 -2.74961 204 182 121 1752393037
0.848523 0.411405 -2.75514 204 182 121 1752393037
0.850234 0.426957 -2.7607 204 182 121 1752393037
0.851952 0.442573 -2.76628 204 182 121 1752393037
0.853677 0.458251 -2.77188 204 182 121 1752393037
0.85541 0.473993 -2.7775 204 182 121 1752393037
0.857149 0.489799 -2.78315 204 182 121 1752393037
0.858895 0.50567 -2.78882 204 182 121 1752393037
0.860648 0.521605 -2.79451 204 182 121 1752393037
0.862409 0.537606 -2.80023 204 182 121 1752393037
0.864177 0.553672 -2.80597 204 182 121 1752393037
0.865952 0.569804 -2.81173 204 182 121 1752393037
0.867735 0.586003 -2.81752 204 182 121 1752393037
0.869524 0.602268 -2.82333 204 182 121 1752393037
0.871321 0.6186 -2.82917 204 182 121 1752393037
0.873126 0.635001 -2.83503 204 182 121 1752393037
0.874938 0.651469 -2.84091 204 182 121 1752393037
0.876758 0.668006 -2.84682 204 182 121 1752393037
0.878585 0.684612 -2.85275 204 182 121 1752393037
0.88042 0.701287 -2.85871 204 182 121 1752393037
0.883159 0.718761 -2.8676 204 182 121 1752393037
0.88635 0.736706 -2.87796 204 182 121 1752393037
0.889564 0.754781 -2.8884 204 182 121 1752393037
0.892801 0.772988 -2.89891 204 182 121 1752393037
0.896062 0.791327 -2.9095 204 182 121 1752393037
0.899347 0.809801 -2.92017 204 182 121 1752393037
0.902656 0.828412 -2.93091 204 182 121 1752393037
0.905989 0.847159 -2.94173 204 182 121 1752393037
0.909348 0.866045 -2.95264 204 182 121 1752393037
0.912731 0.885072 -2.96362 204 182 121 1752393037
0.916139 0.904241 -2.97469 204 182 121 1752393037
0.919573 0.923554 -2.98584 204 182 121 1752393037
0.923033 0.943012 -2.99708 204 182 121 1752393037
0.926519 0.962617 -3.00839 204 182 121 1752393037
0.930032 0.982371 -3.0198 204 182 121 1752393037
0.933571 1.00227 -3.03129 204 182 121 1752393037
0.937137 1.02233 -3.04287 204 182 121 1752393037
0.940731 1.04254 -3.05454 204 182 121 1752393037
0.944352 1.06291 -3.0663 204 182 121 1752393037
0.948001 1.08343 -3.07815 204 182 121 1752393037
0.599621 -0.768745 -1.922 158 89 42 1752393037
0.60143 -0.760783 -1.9278 158 89 42 1752393037
0.603249 -0.752773 -1.93363 158 89 42 1752393037
0.60508 -0.744714 -1.9395 158 89 42 1752393037
0.606921 -0.736605 -1.9454 158 89 42 1752393037
0.608774 -0.728448 -1.95134 158 89 42 1752393037
0.610638 -0.72024 -1.95731 158 89 42 1752393037
0.612514 -0.711982 -1.96333 158 89 42 1752393037
0.614401 -0.703673 -1.96938 158 89 42 1752393037
0.6163 -0.695313 -1.97546 158 89 42 1752393037
0.618211 -0.686901 -1.98159 158 89 42 1752393037
0.620134 -0.678437 -1.98775 158 89 42 1752393037
0.622068 -0.66992 -1.99395 158 89 42 1752393037
0.624015 -0.661349 -2.00019 158 89 42 1752393037
0.625974 -0.652725 -2.00647 158 89 42 1752393037
0.627945 -0.644046 -2.01279 158 89 42 1752393037
0.629929 -0.635313 -2.01915 158 89 42 1752393037
0.631925 -0.626524 -2.02554 158 89 42 1752393037
0.633934 -0.617679 -2.03198 158 89 42 1752393037
0.635956 -0.608778 -2.03847 158 89 42 1752393037
0.63799 -0.59982 -2.04499 158 89 42 1752393037
0.640038 -0.590805 -2.05155 158 89 42 1752393037
0.642099 -0.581731 -2.05816 158 89 42 1752393037
0.644173 -0.572598 -2.06481 158 89 42 1752393037
0.646261 -0.563407 -2.0715 158 89 42 1752393037
0.739567 -0.632109 -2.37058 204 182 121 1752393037
0.74085 -0.620541 -2.37469 204 182 121 1752393037
0.742138 -0.608933 -2.37882 204 182 121 1752393037
0.74343 -0.597285 -2.38296 204 182 121 1752393037
0.744726 -0.585597 -2.38711 204 182 121 1752393037
0.746027 -0.573867 -2.39128 204 182 121 1752393037
0.747333 -0.562096 -2.39547 204 182 121 1752393037
0.748643 -0.550284 -2.39967 204 182 121 1752393037
0.749958 -0.538431 -2.40388 204 182 121 1752393037
0.751277 -0.526536 -2.40811 204 182 121 1752393037
0.752601 -0.514599 -2.41235 204 182 121 1752393037
0.753929 -0.50262 -2.41661 204 182 121 1752393037
0.755263 -0.490598 -2.42089 204 182 121 1752393037
0.756601 -0.478534 -2.42518 204 182 121 1752393037
0.757944 -0.466427 -2.42948 204 182 121 1752393037
0.759291 -0.454277 -2.4338 204 182 121 1752393037
0.760644 -0.442084 -2.43813 204 182 121 1752393037
0.762001 -0.429847 -2.44249 204 182 121 1752393037
0.763363 -0.417566 -2.44685 204 182 121 1752393037
0.76473 -0.405242 -2.45123 204 182 121 1752393037
0.766102 -0.392873 -2.45563 204 182 121 1752393037
0.767479 -0.38046 -2.46004 204 182 121 1752393037
0.768861 -0.368002 -2.46447 204 182 121 1752393037
0.770247 -0.355499 -2.46892 204 182 121 1752393037
0.771639 -0.342951 -2.47338 204 182 121 1752393037
0.773036 -0.330357 -2.47786 204 182 121 1752393037
0.774438 -0.317718 -2.48235 204 182 121 1752393037
0.775845 -0.305033 -2.48686 204 182 121 1752393037
0.777257 -0.292302 -2.49139 204 182 121 1752393037
0.778674 -0.279524 -2.49593 204 182 121 1752393037
0.780097 -0.2667 -2.50049 204 182 121 1752393037
0.781524 -0.253828 -2.50506 204 182 121 1752393037
0.782957 -0.24091 -2.50966 204 182 121 1752393037
0.784395 -0.227944 -2.51427 204 182 121 1752393037
0.785838 -0.21493 -2.51889 204 182 121 1752393037
0.787287 -0.201869 -2.52354 204 182 121 1752393037
0.788741 -0.188759 -2.5282 204 182 121 1752393037
0.790201 -0.1756 -2.53288 204 182 121 1752393037
0.791666 -0.162393 -2.53757 204 182 121 1752393037
0.793136 -0.149137 -2.54228 204 182 121 1752393037
0.794612 -0.135831 -2.54701 204 182 121 1752393037
0.796093 -0.122476 -2.55176 204 182 121 1752393037
0.79758 -0.109071 -2.55653 204 182 121 1752393037
0.799072 -0.095615 -2.56131 204 182 121 1752393037
0.80057 -0.08211 -2.56611 204 182 121 1752393037
0.802074 -0.068553 -2.57093 204 182 121 1752393037
0.803583 -0.054946 -2.57577 204 182 121 1752393037
0.805098 -0.041287 -2.58063 204 182 121 1752393037
0.806619 -0.027577 -2.5855 204 182 121 1752393037
0.808145 -0.013814 -2.59039 204 182 121 1752393037
0.809678 0 -2.5953 204 182 121 1752393037
0.811216 0.013867 -2.60023 204 182 121 1752393037
0.812759 0.027787 -2.60518 204 182 121 1752393037
0.814309 0.041759 -2.61015 204 182 121 1752393037
0.815865 0.055786 -2.61514 204 182 121 1752393037
0.817427 0.069866 -2.62014 204 182 121 1752393037
0.818994 0.083999 -2.62517 204 182 121 1752393037
0.820568 0.098188 -2.63021 204 182 121 1752393037
0.822148 0.11243 -2.63528 204 182 121 1752393037
0.823734 0.126728 -2.64036 204 182 121 1752393037
0.825325 0.141081 -2.64546 204 182 121 1752393037
0.826924 0.15549 -2.65058 204 182 121 1752393037
0.828528 0.169954 -2.65573 204 182 121 1752393037
0.830139 0.184475 -2.66089 204 182 121 1752393037
0.831755 0.199053 -2.66607 204 182 121 1752393037
0.833378 0.213687 -2.67128 204 182 121 1752393037
0.835008 0.228378 -2.6765 204 182 121 1752393037
0.836644 0.243127 -2.68174 204 182 121 1752393037
0.838286 0.257934 -2.68701 204 182 121 1752393037
0.839935 0.272799 -2.69229 204 182 121 1752393037
0.84159 0.287723 -2.6976 204 182 121 1752393037
0.843252 0.302706 -2.70292 204 182 121 1752393037
0.844921 0.317748 -2.70827 204 182 121 1752393037
0.846595 0.33285 -2.71364 204 182 121 1752393037
0.848277 0.348011 -2.71903 204 182 121 1752393037
0.849966 0.363233 -2.72444 204 182 121 1752393037
0.851661 0.378516 -2.72988 204 182 121 1752393037
0.853362 0.39386 -2.73533 204 182 121 1752393037
0.855071 0.409265 -2.74081 204 182 121 1752393037
0.856787 0.424732 -2.74631 204 182 121 1752393037
0.858509 0.440261 -2.75183 204 182 121 1752393037
0.860238 0.455853 -2.75737 204 182 121 1752393037
0.861975 0.471508 -2.76294 204 182 121 1752393037
0.863718 0.487226 -2.76852 204 182 121 1752393037
0.865468 0.503007 -2.77414 204 182 121 1752393037
0.867226 0.518853 -2.77977 204 182 121 1752393037
0.868991 0.534763 -2.78542 204 182 121 1752393037
0.870763 0.550739 -2.79111 204 182 121 1752393037
0.872542 0.566779 -2.79681 204 182 121 1752393037
0.874328 0.582885 -2.80253 204 182 121 1752393037
0.876122 0.599058 -2.80828 204 182 121 1752393037
0.877923 0.615296 -2.81406 204 182 121 1752393037
0.879732 0.631602 -2.81985 204 182 121 1752393037
0.881929 0.648255 -2.8269 204 182 121 1752393037
0.88507 0.665693 -2.83697 204 182 121 1752393037
0.888233 0.683256 -2.8471 204 182 121 1752393037
0.891419 0.700945 -2.85732 204 182 121 1752393037
0.894628 0.718761 -2.8676 204 182 121 1752393037
0.897861 0.736706 -2.87796 204 182 121 1752393037
0.901116 0.754781 -2.8884 204 182 121 1752393037
0.904396 0.772988 -2.89891 204 182 121 1752393037
0.907699 0.791327 -2.9095 204 182 121 1752393037
0.911027 0.809801 -2.92017 204 182 121 1752393037
0.914379 0.828412 -2.93091 204 182 121 1752393037
0.917755 0.847159 -2.94173 204 182 121 1752393037
0.921157 0.866045 -2.95264 204 182 121 1752393037
0.924584 0.885072 -2.96362 204 182 121 1752393037
0.928037 0.904242 -2.97469 204 182 121 1752393037
0.931516 0.923554 -2.98584 204 182 121 1752393037
0.935021 0.943012 -2.99708 204 182 121 1752393037
0.938552 0.962617 -3.00839 204 182 121 1752393037
0.94211 0.982371 -3.0198 204 182 121 1752393037
0.945695 1.00227 -3.03129 204 182 121 1752393037
0.949308 1.02233 -3.04287 204 182 121 1752393037
0.952948 1.04254 -3.05454 204 182 121 1752393037
0.956616 1.06291 -3.0663 204 182 121 1752393037
0.960313 1.08343 -3.07815 204 182 121 1752393037
0.608887 -0.770743 -1.92699 158 89 42 1752393037
0.610728 -0.762766 -1.93282 158 89 42 1752393037
0.612581 -0.754741 -1.93868 158 89 42 1752393037
0.614444 -0.746666 -1.94458 158 89 42 1752393037
0.616319 -0.738543 -1.95052 158 89 42 1752393037
0.618206 -0.73037 -1.95649 158 89 42 1752393037
0.620104 -0.722146 -1.96249 158 89 42 1752393037
0.622014 -0.713872 -1.96854 158 89 42 1752393037
0.623936 -0.705547 -1.97462 158 89 42 1752393037
0.625869 -0.697171 -1.98074 158 89 42 1752393037
0.627815 -0.688742 -1.9869 158 89 42 1752393037
0.629772 -0.68026 -1.99309 158 89 42 1752393037
0.631742 -0.671726 -1.99933 158 89 42 1752393037
0.633725 -0.663138 -2.0056 158 89 42 1752393037
0.635719 -0.654496 -2.01191 158 89 42 1752393037
0.637727 -0.645799 -2.01827 158 89 42 1752393037
0.639747 -0.637048 -2.02466 158 89 42 1752393037
0.64178 -0.62824 -2.03109 158 89 42 1752393037
0.643825 -0.619376 -2.03757 158 89 42 1752393037
0.645885 -0.610456 -2.04409 158 89 42 1752393037
0.647956 -0.601479 -2.05064 158 89 42 1752393037
0.650043 -0.592444 -2.05724 158 89 42 1752393037
0.652142 -0.58335 -2.06389 158 89 42 1752393037
0.654254 -0.574197 -2.07057 158 89 42 1752393037
0.65638 -0.564985 -2.0773 158 89 42 1752393037
0.745694 -0.629277 -2.35996 204 182 121 1752393037
0.746982 -0.617757 -2.36403 204 182 121 1752393037
0.748274 -0.606197 -2.36812 204 182 121 1752393037
0.749571 -0.594596 -2.37223 204 182 121 1752393037
0.750872 -0.582955 -2.37635 204 182 121 1752393037
0.752178 -0.571274 -2.38048 204 182 121 1752393037
0.753488 -0.559552 -2.38463 204 182 121 1752393037
0.754803 -0.547789 -2.38879 204 182 121 1752393037
0.756122 -0.535986 -2.39296 204 182 121 1752393037
0.757447 -0.52414 -2.39715 204 182 121 1752393037
0.758775 -0.512253 -2.40136 204 182 121 1752393037
0.760109 -0.500325 -2.40558 204 182 121 1752393037
0.761447 -0.488354 -2.40981 204 182 121 1752393037
0.76279 -0.476341 -2.41406 204 182 121 1752393037
0.764138 -0.464286 -2.41833 204 182 121 1752393037
0.76549 -0.452188 -2.42261 204 182 121 1752393037
0.766847 -0.440047 -2.4269 204 182 121 1752393037
0.768209 -0.427863 -2.43122 204 182 121 1752393037
0.769576 -0.415636 -2.43554 204 182 121 1752393037
0.770948 -0.403365 -2.43988 204 182 121 1752393037
0.772324 -0.39105 -2.44424 204 182 121 1752393037
0.773706 -0.378691 -2.44861 204 182 121 1752393037
0.775092 -0.366288 -2.453 204 182 121 1752393037
0.776484 -0.353841 -2.4574 204 182 121 1752393037
0.77788 -0.341348 -2.46182 204 182 121 1752393037
0.779282 -0.328811 -2.46626 204 182 121 1752393037
0.780688 -0.316228 -2.47071 204 182 121 1752393037
0.7821 -0.3036 -2.47518 204 182 121 1752393037
0.783517 -0.290926 -2.47966 204 182 121 1752393037
0.784939 -0.278206 -2.48416 204 182 121 1752393037
0.786366 -0.26544 -2.48868 204 182 121 1752393037
0.787798 -0.252627 -2.49321 204 182 121 1752393037
0.789236 -0.239768 -2.49776 204 182 121 1752393037
0.790678 -0.226861 -2.50233 204 182 121 1752393037
0.792126 -0.213908 -2.50691 204 182 121 1752393037
0.79358 -0.200906 -2.51151 204 182 121 1752393037
0.795038 -0.187857 -2.51612 204 182 121 1752393037
0.796503 -0.17476 -2.52076 204 182 121 1752393037
0.797972 -0.161615 -2.52541 204 182 121 1752393037
0.799447 -0.148421 -2.53008 204 182 121 1752393037
0.800927 -0.135178 -2.53476 204 182 121 1752393037
0.802413 -0.121886 -2.53946 204 182 121 1752393037
0.803905 -0.108544 -2.54418 204 182 121 1752393037
0.805402 -0.095153 -2.54892 204 182 121 1752393037
0.806904 -0.081712 -2.55368 204 182 121 1752393037
0.808412 -0.06822 -2.55845 204 182 121 1752393037
0.809926 -0.054679 -2.56324 204 182 121 1752393037
0.811445 -0.041086 -2.56805 204 182 121 1752393037
0.812971 -0.027442 -2.57288 204 182 121 1752393037
0.814502 -0.013747 -2.57772 204 182 121 1752393037
0.816038 0 -2.58258 204 182 121 1752393037
0.817581 0.013799 -2.58747 204 182 121 1752393037
0.819129 0.02765 -2.59237 204 182 121 1752393037
0.820683 0.041554 -2.59729 204 182 121 1752393037
0.822244 0.05551 -2.60222 204 182 121 1752393037
0.82381 0.06952 -2.60718 204 182 121 1752393037
0.825382 0.083583 -2.61215 204 182 121 1752393037
0.82696 0.0977 -2.61715 204 182 121 1752393037
0.828544 0.111871 -2.62216 204 182 121 1752393037
0.830134 0.126096 -2.62719 204 182 121 1752393037
0.83173 0.140376 -2.63225 204 182 121 1752393037
0.833333 0.154712 -2.63732 204 182 121 1752393037
0.834942 0.169102 -2.64241 204 182 121 1752393037
0.836556 0.183548 -2.64752 204 182 121 1752393037
0.838178 0.19805 -2.65265 204 182 121 1752393037
0.839805 0.212609 -2.6578 204 182 121 1752393037
0.841439 0.227224 -2.66297 204 182 121 1752393037
0.843079 0.241896 -2.66816 204 182 121 1752393037
0.844725 0.256625 -2.67337 204 182 121 1752393037
0.846378 0.271412 -2.6786 204 182 121 1752393037
0.848038 0.286258 -2.68386 204 182 121 1752393037
0.849704 0.301161 -2.68913 204 182 121 1752393037
0.851376 0.316123 -2.69442 204 182 121 1752393037
0.853056 0.331144 -2.69974 204 182 121 1752393037
0.854741 0.346224 -2.70507 204 182 121 1752393037
0.856434 0.361365 -2.71043 204 182 121 1752393037
0.858133 0.376565 -2.71581 204 182 121 1752393037
0.859839 0.391825 -2.7212 204 182 121 1752393037
0.861552 0.407147 -2.72662 204 182 121 1752393037
0.863271 0.422529 -2.73207 204 182 121 1752393037
0.864998 0.437973 -2.73753 204 182 121 1752393037
0.866731 0.453479 -2.74302 204 182 121 1752393037
0.868471 0.469048 -2.74852 204 182 121 1752393037
0.870219 0.484679 -2.75405 204 182 121 1752393037
0.871973 0.500373 -2.7596 204 182 121 1752393037
0.873735 0.51613 -2.76518 204 182 121 1752393037
0.875503 0.531951 -2.77078 204 182 121 1752393037
0.877279 0.547837 -2.7764 204 182 121 1752393037
0.879062 0.563787 -2.78204 204 182 121 1752393037
0.880852 0.579801 -2.7877 204 182 121 1752393037
0.883826 0.596676 -2.79712 204 182 121 1752393037
0.88694 0.613748 -2.80697 204 182 121 1752393037
0.890077 0.630941 -2.8169 204 182 121 1752393037
0.893236 0.648255 -2.8269 204 182 121 1752393037
0.896417 0.665693 -2.83696 204 182 121 1752393037
0.899621 0.683256 -2.8471 204 182 121 1752393037
0.902848 0.700945 -2.85732 204 182 121 1752393037
0.906098 0.718761 -2.8676 204 182 121 1752393037
0.909372 0.736706 -2.87796 204 182 121 1752393037
0.912669 0.754781 -2.8884 204 182 121 1752393037
0.91599 0.772988 -2.89891 204 182 121 1752393037
0.919336 0.791327 -2.9095 204 182 121 1752393037
0.922706 0.809801 -2.92017 204 182 121 1752393037
0.926101 0.828411 -2.93091 204 182 121 1752393037
0.929522 0.847159 -2.94173 204 182 121 1752393037
0.932967 0.866045 -2.95264 204 182 121 1752393037
0.936438 0.885072 -2.96362 204 182 121 1752393037
0.939935 0.904241 -2.97469 204 182 121 1752393037
0.943458 0.923554 -2.98584 204 182 121 1752393037
0.947008 0.943012 -2.99708 204 182 121 1752393037
0.950585 0.962617 -3.00839 204 182 121 1752393037
0.954188 0.982371 -3.0198 204 182 121 1752393037
0.957819 1.00227 -3.03129 204 182 121 1752393037
0.961478 1.02233 -3.04287 204 182 121 1752393037
0.965165 1.04254 -3.05454 204 182 121 1752393037
0.96888 1.06291 -3.0663 204 182 121 1752393037
0.972625 1.08343 -3.07815 204 182 121 1752393037
0.618201 -0.772751 -1.93201 158 89 42 1752393037
0.620075 -0.764759 -1.93787 158 89 42 1752393037
0.621961 -0.756719 -1.94377 158 89 42 1752393037
0.623858 -0.74863 -1.94969 158 89 42 1752393037
0.625767 -0.740491 -1.95566 158 89 42 1752393037
0.627687 -0.732302 -1.96166 158 89 42 1752393037
0.62962 -0.724063 -1.9677 158 89 42 1752393037
0.631564 -0.715773 -1.97378 158 89 42 1752393037
0.63352 -0.707431 -1.97989 158 89 42 1752393037
0.635489 -0.699038 -1.98605 158 89 42 1752393037
0.63747 -0.690592 -1.99223 158 89 42 1752393037
0.639463 -0.682094 -1.99846 158 89 42 1752393037
0.641469 -0.673542 -2.00473 158 89 42 1752393037
0.643487 -0.664936 -2.01104 158 89 42 1752393037
0.645518 -0.656277 -2.01739 158 89 42 1752393037
0.647562 -0.647562 -2.02378 158 89 42 1752393037
0.649619 -0.638792 -2.0302 158 89 42 1752393037
0.651689 -0.629966 -2.03667 158 89 42 1752393037
0.653771 -0.621083 -2.04318 158 89 42 1752393037
0.655868 -0.612144 -2.04973 158 89 42 1752393037
0.657978 -0.603147 -2.05633 158 89 42 1752393037
0.660102 -0.594092 -2.06297 158 89 42 1752393037
0.66224 -0.584979 -2.06965 158 89 42 1752393037
0.664391 -0.575805 -2.07637 158 89 42 1752393037
0.750477 -0.637906 -2.34541 204 182 121 1752393037
0.751765 -0.626471 -2.34944 204 182 121 1752393037
0.753058 -0.614997 -2.35347 204 182 121 1752393037
0.754355 -0.603484 -2.35753 204 182 121 1752393037
0.755657 -0.591931 -2.36159 204 182 121 1752393037
0.756962 -0.580338 -2.36568 204 182 121 1752393037
0.758273 -0.568705 -2.36977 204 182 121 1752393037
0.759588 -0.557031 -2.37388 204 182 121 1752393037
0.760907 -0.545317 -2.37801 204 182 121 1752393037
0.762232 -0.533562 -2.38214 204 182 121 1752393037
0.763561 -0.521766 -2.3863 204 182 121 1752393037
0.764894 -0.509929 -2.39046 204 182 121 1752393037
0.766232 -0.498051 -2.39465 204 182 121 1752393037
0.767575 -0.486131 -2.39884 204 182 121 1752393037
0.768922 -0.474169 -2.40305 204 182 121 1752393037
0.770275 -0.462165 -2.40728 204 182 121 1752393037
0.771632 -0.450118 -2.41152 204 182 121 1752393037
0.772993 -0.43803 -2.41578 204 182 121 1752393037
0.77436 -0.425898 -2.42005 204 182 121 1752393037
0.775731 -0.413723 -2.42433 204 182 121 1752393037
0.777108 -0.401506 -2.42863 204 182 121 1752393037
0.778489 -0.389244 -2.43295 204 182 121 1752393037
0.779875 -0.37694 -2.43728 204 182 121 1752393037
0.781266 -0.364591 -2.44163 204 182 121 1752393037
0.782662 -0.352198 -2.44599 204 182 121 1752393037
0.784063 -0.339761 -2.45037 204 182 121 1752393037
0.785469 -0.327279 -2.45477 204 182 121 1752393037
0.78688 -0.314752 -2.45918 204 182 121 1752393037
0.788297 -0.30218 -2.4636 204 182 121 1752393037
0.789718 -0.289563 -2.46804 204 182 121 1752393037
0.791144 -0.276901 -2.4725 204 182 121 1752393037
0.792576 -0.264192 -2.47698 204 182 121 1752393037
0.794013 -0.251437 -2.48147 204 182 121 1752393037
0.795455 -0.238636 -2.48597 204 182 121 1752393037
0.796902 -0.225789 -2.4905 204 182 121 1752393037
0.798355 -0.212895 -2.49504 204 182 121 1752393037
0.799812 -0.199953 -2.49959 204 182 121 1752393037
0.801276 -0.186964 -2.50416 204 182 121 1752393037
0.802744 -0.173928 -2.50875 204 182 121 1752393037
0.804218 -0.160844 -2.51336 204 182 121 1752393037
0.805697 -0.147711 -2.51798 204 182 121 1752393037
0.807182 -0.13453 -2.52262 204 182 121 1752393037
0.808672 -0.121301 -2.52728 204 182 121 1752393037
0.810168 -0.108022 -2.53196 204 182 121 1752393037
0.81167 -0.094695 -2.53665 204 182 121 1752393037
0.813177 -0.081318 -2.54136 204 182 121 1752393037
0.814689 -0.067891 -2.54608 204 182 121 1752393037
0.816207 -0.054414 -2.55083 204 182 121 1752393037
0.817731 -0.040887 -2.55559 204 182 121 1752393037
0.819261 -0.027309 -2.56037 204 182 121 1752393037
0.820796 -0.01368 -2.56517 204 182 121 1752393037
0.822337 0 -2.56999 204 182 121 1752393037
0.823884 0.013731 -2.57482 204 182 121 1752393037
0.825436 0.027515 -2.57967 204 182 121 1752393037
0.826995 0.04135 -2.58454 204 182 121 1752393037
0.828559 0.055237 -2.58943 204 182 121 1752393037
0.83013 0.069177 -2.59434 204 182 121 1752393037
0.831706 0.083171 -2.59927 204 182 121 1752393037
0.833288 0.097217 -2.60421 204 182 121 1752393037
0.834877 0.111317 -2.60918 204 182 121 1752393037
0.836471 0.125471 -2.61416 204 182 121 1752393037
0.838072 0.139679 -2.61916 204 182 121 1752393037
0.839678 0.153941 -2.62418 204 182 121 1752393037
0.841291 0.168258 -2.62922 204 182 121 1752393037
0.84291 0.182631 -2.63428 204 182 121 1752393037
0.844535 0.197058 -2.63936 204 182 121 1752393037
0.846167 0.211542 -2.64446 204 182 121 1752393037
0.847805 0.226081 -2.64958 204 182 121 1752393037
0.849449 0.240677 -2.65472 204 182 121 1752393037
0.8511 0.25533 -2.65988 204 182 121 1752393037
0.852757 0.27004 -2.66506 204 182 121 1752393037
0.85442 0.284807 -2.67025 204 182 121 1752393037
0.85609 0.299632 -2.67547 204 182 121 1752393037
0.857767 0.314514 -2.68071 204 182 121 1752393037
0.85945 0.329456 -2.68597 204 182 121 1752393037
0.86114 0.344456 -2.69125 204 182 121 1752393037
0.862836 0.359515 -2.69655 204 182 121 1752393037
0.864539 0.374634 -2.70188 204 182 121 1752393037
0.866249 0.389812 -2.70722 204 182 121 1752393037
0.867966 0.405051 -2.71259 204 182 121 1752393037
0.869689 0.42035 -2.71797 204 182 121 1752393037
0.871419 0.43571 -2.72338 204 182 121 1752393037
0.873156 0.451131 -2.72881 204 182 121 1752393037
0.874901 0.466614 -2.73426 204 182 121 1752393037
0.876652 0.482158 -2.73973 204 182 121 1752393037
0.87841 0.497766 -2.74523 204 182 121 1752393037
0.880175 0.513435 -2.75074 204 182 121 1752393037
0.882616 0.52957 -2.75837 204 182 121 1752393037
0.885683 0.546171 -2.76796 204 182 121 1752393037
0.888772 0.562889 -2.77761 204 182 121 1752393037
0.891882 0.579723 -2.78733 204 182 121 1752393037
0.895014 0.596676 -2.79712 204 182 121 1752393037
0.898167 0.613748 -2.80697 204 182 121 1752393037
0.901343 0.63094 -2.8169 204 182 121 1752393037
0.904542 0.648255 -2.8269 204 182 121 1752393037
0.907764 0.665693 -2.83697 204 182 121 1752393037
0.911008 0.683256 -2.8471 204 182 121 1752393037
0.914276 0.700945 -2.85732 204 182 121 1752393037
0.917567 0.718761 -2.8676 204 182 121 1752393037
0.920883 0.736706 -2.87796 204 182 121 1752393037
0.924222 0.754781 -2.8884 204 182 121 1752393037
0.927585 0.772988 -2.89891 204 182 121 1752393037
0.930973 0.791327 -2.9095 204 182 121 1752393037
0.934386 0.809801 -2.92017 204 182 121 1752393037
0.937824 0.828411 -2.93091 204 182 121 1752393037
0.941288 0.847159 -2.94173 204 182 121 1752393037
0.944777 0.866045 -2.95264 204 182 121 1752393037
0.948292 0.885072 -2.96362 204 182 121 1752393037
0.951833 0.904241 -2.97469 204 182 121 1752393037
0.955401 0.923554 -2.98584 204 182 121 1752393037
0.958995 0.943012 -2.99708 204 182 121 1752393037
0.962617 0.962617 -3.00839 204 182 121 1752393037
0.966267 0.982371 -3.0198 204 182 121 1752393037
0.969944 1.00227 -3.03129 204 182 121 1752393037
0.973649 1.02233 -3.04287 204 182 121 1752393037
0.977382 1.04254 -3.05454 204 182 121 1752393037
0.981145 1.06291 -3.0663 204 182 121 1752393037
0.984936 1.08343 -3.07815 204 182 121 1752393037
0.627563 -0.774769 -1.93706 158 89 42 1752393037
0.629471 -0.766763 -1.94295 158 89 42 1752393037
0.63139 -0.758708 -1.94887 158 89 42 1752393037
0.633321 -0.750603 -1.95484 158 89 42 1752393037
0.635264 -0.742449 -1.96083 158 89 42 1752393037
0.637219 -0.734244 -1.96687 158 89 42 1752393037
0.639186 -0.725989 -1.97294 158 89 42 1752393037
0.641165 -0.717683 -1.97905 158 89 42 1752393037
0.643157 -0.709325 -1.98519 158 89 42 1752393037
0.64516 -0.700915 -1.99138 158 89 42 1752393037
0.647177 -0.692453 -1.9976 158 89 42 1752393037
0.649206 -0.683937 -2.00387 158 89 42 1752393037
0.651248 -0.675368 -2.01017 158 89 42 1752393037
0.653302 -0.666745 -2.01651 158 89 42 1752393037
0.65537 -0.658067 -2.02289 158 89 42 1752393037
0.657451 -0.649334 -2.02931 158 89 42 1752393037
0.659545 -0.640546 -2.03578 158 89 42 1752393037
0.661652 -0.631701 -2.04228 158 89 42 1752393037
0.663773 -0.622799 -2.04883 158 89 42 1752393037
0.665907 -0.61384 -2.05541 158 89 42 1752393037
0.668056 -0.604824 -2.06205 158 89 42 1752393037
0.670218 -0.595749 -2.06872 158 89 42 1752393037
0.672394 -0.586616 -2.07544 158 89 42 1752393037
0.674585 -0.577422 -2.0822 158 89 42 1752393037
0.756491 -0.635079 -2.33502 204 182 121 1752393037
0.757784 -0.62369 -2.339 204 182 121 1752393037
0.759081 -0.612263 -2.34301 204 182 121 1752393037
0.760382 -0.600796 -2.34703 204 182 121 1752393037
0.761688 -0.58929 -2.35106 204 182 121 1752393037
0.762999 -0.577744 -2.3551 204 182 121 1752393037
0.764314 -0.566158 -2.35916 204 182 121 1752393037
0.765633 -0.554533 -2.36323 204 182 121 1752393037
0.766957 -0.542867 -2.36732 204 182 121 1752393037
0.768286 -0.531161 -2.37142 204 182 121 1752393037
0.769619 -0.519414 -2.37554 204 182 121 1752393037
0.770957 -0.507626 -2.37967 204 182 121 1752393037
0.7723 -0.495797 -2.38381 204 182 121 1752393037
0.773647 -0.483927 -2.38797 204 182 121 1752393037
0.774999 -0.472016 -2.39214 204 182 121 1752393037
0.776356 -0.460063 -2.39633 204 182 121 1752393037
0.777717 -0.448068 -2.40053 204 182 121 1752393037
0.779084 -0.43603 -2.40475 204 182 121 1752393037
0.780455 -0.423951 -2.40898 204 182 121 1752393037
0.781831 -0.411828 -2.41323 204 182 121 1752393037
0.783211 -0.399663 -2.41749 204 182 121 1752393037
0.784597 -0.387455 -2.42177 204 182 121 1752393037
0.785988 -0.375204 -2.42606 204 182 121 1752393037
0.787383 -0.362909 -2.43037 204 182 121 1752393037
0.788783 -0.35057 -2.43469 204 182 121 1752393037
0.790189 -0.338188 -2.43903 204 182 121 1752393037
0.791599 -0.325761 -2.44338 204 182 121 1752393037
0.793015 -0.31329 -2.44775 204 182 121 1752393037
0.794436 -0.300774 -2.45214 204 182 121 1752393037
0.795861 -0.288213 -2.45654 204 182 121 1752393037
0.797292 -0.275607 -2.46095 204 182 121 1752393037
0.798728 -0.262956 -2.46539 204 182 121 1752393037
0.800169 -0.250259 -2.46984 204 182 121 1752393037
0.801616 -0.237516 -2.4743 204 182 121 1752393037
0.803067 -0.224727 -2.47878 204 182 121 1752393037
0.804524 -0.211891 -2.48328 204 182 121 1752393037
0.805986 -0.199009 -2.48779 204 182 121 1752393037
0.807454 -0.18608 -2.49232 204 182 121 1752393037
0.808927 -0.173104 -2.49687 204 182 121 1752393037
0.810405 -0.16008 -2.50143 204 182 121 1752393037
0.811889 -0.147009 -2.50601 204 182 121 1752393037
0.813377 -0.133889 -2.5106 204 182 121 1752393037
0.814872 -0.120722 -2.51522 204 182 121 1752393037
0.816372 -0.107506 -2.51985 204 182 121 1752393037
0.817878 -0.094241 -2.52449 204 182 121 1752393037
0.819389 -0.080927 -2.52916 204 182 121 1752393037
0.820906 -0.067564 -2.53384 204 182 121 1752393037
0.822428 -0.054152 -2.53854 204 182 121 1752393037
0.823956 -0.040689 -2.54326 204 182 121 1752393037
0.82549 -0.027177 -2.54799 204 182 121 1752393037
0.827029 -0.013614 -2.55274 204 182 121 1752393037
0.828574 0 -2.55751 204 182 121 1752393037
0.830126 0.013665 -2.5623 204 182 121 1752393037
0.831682 0.02738 -2.5671 204 182 121 1752393037
0.833245 0.041148 -2.57193 204 182 121 1752393037
0.834813 0.054967 -2.57677 204 182 121 1752393037
0.836388 0.068839 -2.58163 204 182 121 1752393037
0.837968 0.082762 -2.58651 204 182 121 1752393037
0.839555 0.096739 -2.5914 204 182 121 1752393037
0.841147 0.110768 -2.59632 204 182 121 1752393037
0.842745 0.124851 -2.60125 204 182 121 1752393037
0.84435 0.138988 -2.6062 204 182 121 1752393037
0.845961 0.153178 -2.61118 204 182 121 1752393037
0.847578 0.167423 -2.61617 204 182 121 1752393037
0.849201 0.181722 -2.62118 204 182 121 1752393037
0.85083 0.196076 -2.6262 204 182 121 1752393037
0.852465 0.210485 -2.63125 204 182 121 1752393037
0.854107 0.22495 -2.63632 204 182 121 1752393037
0.855755 0.239471 -2.64141 204 182 121 1752393037
0.85741 0.254047 -2.64652 204 182 121 1752393037
0.859071 0.268681 -2.65164 204 182 121 1752393037
0.860738 0.283371 -2.65679 204 182 121 1752393037
0.862412 0.298118 -2.66196 204 182 121 1752393037
0.864092 0.312922 -2.66714 204 182 121 1752393037
0.865779 0.327785 -2.67235 204 182 121 1752393037
0.867473 0.342705 -2.67758 204 182 121 1752393037
0.869173 0.357684 -2.68282 204 182 121 1752393037
0.87088 0.372722 -2.68809 204 182 121 1752393037
0.872593 0.387819 -2.69338 204 182 121 1752393037
0.874314 0.402976 -2.69869 204 182 121 1752393037
0.876041 0.418192 -2.70402 204 182 121 1752393037
0.877775 0.433469 -2.70937 204 182 121 1752393037
0.879516 0.448806 -2.71475 204 182 121 1752393037
0.88144 0.464298 -2.72069 204 182 121 1752393037
0.884461 0.480448 -2.73001 204 182 121 1752393037
0.887503 0.496709 -2.7394 204 182 121 1752393037
0.890565 0.513083 -2.74886 204 182 121 1752393037
0.893649 0.52957 -2.75837 204 182 121 1752393037
0.896754 0.546171 -2.76796 204 182 121 1752393037
0.899881 0.562889 -2.77761 204 182 121 1752393037
0.90303 0.579723 -2.78733 204 182 121 1752393037
0.906201 0.596676 -2.79712 204 182 121 1752393037
0.909395 0.613748 -2.80697 204 182 121 1752393037
0.91261 0.63094 -2.8169 204 182 121 1752393037
0.915849 0.648255 -2.8269 204 182 121 1752393037
0.919111 0.665694 -2.83696 204 182 121 1752393037
0.922396 0.683256 -2.8471 204 182 121 1752393037
0.925705 0.700945 -2.85732 204 182 121 1752393037
0.929037 0.718761 -2.8676 204 182 121 1752393037
0.932394 0.736706 -2.87796 204 182 121 1752393037
0.935775 0.754781 -2.8884 204 182 121 1752393037
0.93918 0.772988 -2.89891 204 182 121 1752393037
0.94261 0.791327 -2.9095 204 182 121 1752393037
0.946066 0.809801 -2.92017 204 182 121 1752393037
0.949547 0.828411 -2.93091 204 182 121 1752393037
0.953054 0.847159 -2.94173 204 182 121 1752393037
0.956586 0.866045 -2.95264 204 182 121 1752393037
0.960145 0.885072 -2.96362 204 182 121 1752393037
0.963731 0.904241 -2.97469 204 182 121 1752393037
0.967343 0.923554 -2.98584 204 182 121 1752393037
0.970983 0.943012 -2.99708 204 182 121 1752393037
0.97465 0.962617 -3.00839 204 182 121 1752393037
0.978345 0.982371 -3.0198 204 182 121 1752393037
0.982068 1.00227 -3.03129 204 182 121 1752393037
0.98582 1.02233 -3.04287 204 182 121 1752393037
0.9896 1.04254 -3.05454 204 182 121 1752393037
0.993409 1.06291 -3.0663 204 182 121 1752393037
0.997248 1.08343 -3.07815 204 182 121 1752393037
0.636975 -0.776799 -1.94213 158 89 42 1752393037
0.638916 -0.768777 -1.94806 158 89 42 1752393037
0.64087 -0.760707 -1.95401 158 89 42 1752393037
0.642835 -0.752587 -1.96 158 89 42 1752393037
0.644812 -0.744417 -1.96603 158 89 42 1752393037
0.646802 -0.736197 -1.9721 158 89 42 1752393037
0.648804 -0.727926 -1.9782 158 89 42 1752393037
0.650818 -0.719603 -1.98434 158 89 42 1752393037
0.652845 -0.711229 -1.99052 158 89 42 1752393037
0.654884 -0.702803 -1.99674 158 89 42 1752393037
0.656936 -0.694323 -2.003 158 89 42 1752393037
0.659002 -0.68579 -2.00929 158 89 42 1752393037
0.66108 -0.677204 -2.01563 158 89 42 1752393037
0.663171 -0.668563 -2.02201 158 89 42 1752393037
0.665276 -0.659867 -2.02842 158 89 42 1752393037
0.667394 -0.651116 -2.03488 158 89 42 1752393037
0.669525 -0.642309 -2.04138 158 89 42 1752393037
0.671671 -0.633445 -2.04792 158 89 42 1752393037
0.67383 -0.624525 -2.05451 158 89 42 1752393037
0.676002 -0.615547 -2.06113 158 89 42 1752393037
0.678189 -0.606511 -2.0678 158 89 42 1752393037
0.68039 -0.597416 -2.07451 158 89 42 1752393037
0.682606 -0.588262 -2.08126 158 89 42 1752393037
0.684836 -0.579048 -2.08806 158 89 42 1752393037
0.762451 -0.632277 -2.32471 204 182 121 1752393037
0.763748 -0.620934 -2.32867 204 182 121 1752393037
0.76505 -0.609552 -2.33263 204 182 121 1752393037
0.766356 -0.598131 -2.33662 204 182 121 1752393037
0.767666 -0.586672 -2.34061 204 182 121 1752393037
0.768981 -0.575173 -2.34462 204 182 121 1752393037
0.7703 -0.563634 -2.34864 204 182 121 1752393037
0.771624 -0.552056 -2.35268 204 182 121 1752393037
0.772953 -0.540439 -2.35673 204 182 121 1752393037
0.774286 -0.528781 -2.3608 204 182 121 1752393037
0.775624 -0.517082 -2.36488 204 182 121 1752393037
0.776966 -0.505344 -2.36897 204 182 121 1752393037
0.778313 -0.493564 -2.37308 204 182 121 1752393037
0.779665 -0.481744 -2.3772 204 182 121 1752393037
0.781021 -0.469882 -2.38133 204 182 121 1752393037
0.782382 -0.45798 -2.38548 204 182 121 1752393037
0.783748 -0.446035 -2.38965 204 182 121 1752393037
0.785118 -0.434049 -2.39382 204 182 121 1752393037
0.786494 -0.422021 -2.39802 204 182 121 1752393037
0.787874 -0.409951 -2.40223 204 182 121 1752393037
0.789259 -0.397838 -2.40645 204 182 121 1752393037
0.790649 -0.385682 -2.41069 204 182 121 1752393037
0.792044 -0.373484 -2.41494 204 182 121 1752393037
0.793444 -0.361243 -2.41921 204 182 121 1752393037
0.794849 -0.348958 -2.42349 204 182 121 1752393037
0.796258 -0.33663 -2.42779 204 182 121 1752393037
0.797673 -0.324257 -2.4321 204 182 121 1752393037
0.799093 -0.311841 -2.43643 204 182 121 1752393037
0.800518 -0.299381 -2.44078 204 182 121 1752393037
0.801948 -0.286876 -2.44514 204 182 121 1752393037
0.803383 -0.274326 -2.44951 204 182 121 1752393037
0.804823 -0.261731 -2.4539 204 182 121 1752393037
0.806268 -0.249091 -2.45831 204 182 121 1752393037
0.807719 -0.236406 -2.46273 204 182 121 1752393037
0.809175 -0.223674 -2.46717 204 182 121 1752393037
0.810636 -0.210897 -2.47163 204 182 121 1752393037
0.812102 -0.198074 -2.4761 204 182 121 1752393037
0.813574 -0.185204 -2.48059 204 182 121 1752393037
0.815051 -0.172287 -2.48509 204 182 121 1752393037
0.816533 -0.159324 -2.48961 204 182 121 1752393037
0.818021 -0.146313 -2.49414 204 182 121 1752393037
0.819514 -0.133254 -2.4987 204 182 121 1752393037
0.821013 -0.120148 -2.50327 204 182 121 1752393037
0.822517 -0.106994 -2.50785 204 182 121 1752393037
0.824027 -0.093792 -2.51246 204 182 121 1752393037
0.825542 -0.080541 -2.51708 204 182 121 1752393037
0.827063 -0.067241 -2.52171 204 182 121 1752393037
0.828589 -0.053892 -2.52637 204 182 121 1752393037
0.830121 -0.040494 -2.53104 204 182 121 1752393037
0.831659 -0.027046 -2.53573 204 182 121 1752393037
0.833203 -0.013548 -2.54043 204 182 121 1752393037
0.834752 0 -2.54516 204 182 121 1752393037
0.836307 0.013598 -2.5499 204 182 121 1752393037
0.837868 0.027248 -2.55466 204 182 121 1752393037
0.839434 0.040948 -2.55943 204 182 121 1752393037
0.841007 0.0547 -2.56423 204 182 121 1752393037
0.842585 0.068503 -2.56904 204 182 121 1752393037
0.844169 0.082358 -2.57387 204 182 121 1752393037
0.84576 0.096265 -2.57872 204 182 121 1752393037
0.847356 0.110225 -2.58359 204 182 121 1752393037
0.848958 0.124238 -2.58847 204 182 121 1752393037
0.850567 0.138304 -2.59338 204 182 121 1752393037
0.852181 0.152423 -2.5983 204 182 121 1752393037
0.853802 0.166595 -2.60324 204 182 121 1752393037
0.855429 0.180822 -2.6082 204 182 121 1752393037
0.857062 0.195104 -2.61318 204 182 121 1752393037
0.858701 0.209439 -2.61818 204 182 121 1752393037
0.860347 0.22383 -2.62319 204 182 121 1752393037
0.861999 0.238276 -2.62823 204 182 121 1752393037
0.863657 0.252778 -2.63329 204 182 121 1752393037
0.865322 0.267335 -2.63836 204 182 121 1752393037
0.866993 0.281949 -2.64346 204 182 121 1752393037
0.86867 0.296619 -2.64857 204 182 121 1752393037
0.870354 0.311346 -2.65371 204 182 121 1752393037
0.872045 0.326131 -2.65886 204 182 121 1752393037
0.873742 0.340972 -2.66404 204 182 121 1752393037
0.875446 0.355872 -2.66923 204 182 121 1752393037
0.877156 0.37083 -2.67445 204 182 121 1752393037
0.878873 0.385847 -2.67968 204 182 121 1752393037
0.880597 0.400922 -2.68494 204 182 121 1752393037
0.883272 0.416502 -2.69309 204 182 121 1752393037
0.886268 0.432326 -2.70223 204 182 121 1752393037
0.889285 0.448257 -2.71143 204 182 121 1752393037
0.892322 0.464298 -2.72069 204 182 121 1752393037
0.89538 0.480448 -2.73001 204 182 121 1752393037
0.898459 0.496709 -2.7394 204 182 121 1752393037
0.90156 0.513083 -2.74885 204 182 121 1752393037
0.904682 0.52957 -2.75837 204 182 121 1752393037
0.907826 0.546171 -2.76796 204 182 121 1752393037
0.910991 0.562889 -2.77761 204 182 121 1752393037
0.914179 0.579723 -2.78733 204 182 121 1752393037
0.917389 0.596676 -2.79712 204 182 121 1752393037
0.920622 0.613748 -2.80697 204 182 121 1752393037
0.923877 0.630941 -2.8169 204 182 121 1752393037
0.927156 0.648255 -2.8269 204 182 121 1752393037
0.930458 0.665693 -2.83696 204 182 121 1752393037
0.933784 0.683256 -2.8471 204 182 121 1752393037
0.937133 0.700945 -2.85732 204 182 121 1752393037
0.940507 0.718761 -2.8676 204 182 121 1752393037
0.943905 0.736706 -2.87796 204 182 121 1752393037
0.947327 0.754781 -2.8884 204 182 121 1752393037
0.950775 0.772988 -2.89891 204 182 121 1752393037
0.954248 0.791327 -2.9095 204 182 121 1752393037
0.957746 0.809801 -2.92017 204 182 121 1752393037
0.96127 0.828411 -2.93091 204 182 121 1752393037
0.96482 0.847159 -2.94173 204 182 121 1752393037
0.968396 0.866045 -2.95264 204 182 121 1752393037
0.971999 0.885072 -2.96362 204 182 121 1752393037
0.975629 0.904242 -2.97469 204 182 121 1752393037
0.979286 0.923554 -2.98584 204 182 121 1752393037
0.98297 0.943012 -2.99708 204 182 121 1752393037
0.986683 0.962617 -3.00839 204 182 121 1752393037
0.990423 0.982371 -3.0198 204 182 121 1752393037
0.994192 1.00227 -3.03129 204 182 121 1752393037
0.99799 1.02233 -3.04287 204 182 121 1752393037
1.00182 1.04254 -3.05454 204 182 121 1752393037
1.00567 1.06291 -3.0663 204 182 121 1752393037
1.00956 1.08343 -3.07815 204 182 121 1752393037
0.646436 -0.778839 -1.94723 158 89 42 1752393037
0.648411 -0.770802 -1.95319 158 89 42 1752393037
0.650399 -0.762717 -1.95917 158 89 42 1752393037
0.652399 -0.754582 -1.9652 158 89 42 1752393037
0.654411 -0.746396 -1.97126 158 89 42 1752393037
0.656435 -0.73816 -1.97736 158 89 42 1752393037
0.658472 -0.729873 -1.98349 158 89 42 1752393037
0.660522 -0.721534 -1.98967 158 89 42 1752393037
0.662585 -0.713144 -1.99588 158 89 42 1752393037
0.66466 -0.7047 -2.00213 158 89 42 1752393037
0.666749 -0.696204 -2.00842 158 89 42 1752393037
0.668851 -0.687654 -2.01475 158 89 42 1752393037
0.670966 -0.67905 -2.02113 158 89 42 1752393037
