ply
format ascii 1.0
comment PCL generated
obj_info is_cyberware_data 0
obj_info is_mesh 0
obj_info is_warped 0
obj_info is_interlaced 0
obj_info num_cols 23904
obj_info num_rows 1
obj_info echo_rgb_offset_x 0
obj_info echo_rgb_offset_y 0
obj_info echo_rgb_offset_z 0
obj_info echo_rgb_frontfocus 0.0
obj_info echo_rgb_backfocus 0.0
obj_info echo_rgb_pixelsize 0.0
obj_info echo_rgb_centerpixel 0
obj_info echo_frames 1
obj_info echo_lgincr 0.0
element vertex 946
property float x
property float y
property float z
property uchar red
property uchar green
property uchar blue
property uint label
end_header
0.883681 0.347678 -3.6219 204 182 121 1752393037
0.887175 0.368444 -3.63622 204 182 121 1752393037
0.890696 0.389375 -3.65065 204 182 121 1752393037
0.894245 0.410473 -3.6652 204 182 121 1752393037
0.897822 0.43174 -3.67986 204 182 121 1752393037
0.901429 0.453177 -3.69464 204 182 121 1752393037
0.905064 0.474788 -3.70954 204 182 121 1752393037
0.908729 0.496573 -3.72457 204 182 121 1752393037
0.912424 0.518536 -3.73971 204 182 121 1752393037
0.916149 0.540678 -3.75498 204 182 121 1752393037
0.919904 0.563002 -3.77037 204 182 121 1752393037
0.923691 0.585509 -3.78589 204 182 121 1752393037
0.927508 0.608202 -3.80153 204 182 121 1752393037
0.931358 0.631084 -3.81731 204 182 121 1752393037
0.935239 0.654156 -3.83322 204 182 121 1752393037
0.659063 -1.063 -2.6577 79 115 115 1752393037
0.660972 -1.05187 -2.6654 79 115 115 1752393037
0.662893 -1.04067 -2.67315 79 115 115 1752393037
0.664825 -1.02941 -2.68094 79 115 115 1752393037
0.666769 -1.01808 -2.68878 79 115 115 1752393037
0.668724 -1.00668 -2.69666 79 115 115 1752393037
0.67069 -0.995217 -2.70459 79 115 115 1752393037
0.672668 -0.983686 -2.71256 79 115 115 1752393037
0.674657 -0.972087 -2.72059 79 115 115 1752393037
0.676659 -0.960419 -2.72866 79 115 115 1752393037
0.678672 -0.948681 -2.73678 79 115 115 1752393037
0.680698 -0.936874 -2.74494 79 115 115 1752393037
0.682735 -0.924996 -2.75316 79 115 115 1752393037
0.684785 -0.913046 -2.76143 79 115 115 1752393037
0.686847 -0.901025 -2.76974 79 115 115 1752393037
0.688921 -0.888931 -2.77811 79 115 115 1752393037
0.691008 -0.876763 -2.78652 79 115 115 1752393037
0.693108 -0.864522 -2.79499 79 115 115 1752393037
0.695221 -0.852206 -2.80351 79 115 115 1752393037
0.697346 -0.839815 -2.81208 79 115 115 1752393037
0.699485 -0.827347 -2.8207 79 115 115 1752393037
0.701636 -0.814804 -2.82938 79 115 115 1752393037
0.703801 -0.802182 -2.83811 79 115 115 1752393037
0.70598 -0.789483 -2.84689 79 115 115 1752393037
0.708171 -0.776704 -2.85573 79 115 115 1752393037
0.710377 -0.763846 -2.86463 79 115 115 1752393037
0.712596 -0.750908 -2.87358 79 115 115 1752393037
0.71483 -0.737888 -2.88258 79 115 115 1752393037
0.717077 -0.724787 -2.89164 79 115 115 1752393037
0.719338 -0.711603 -2.90076 79 115 115 1752393037
0.721614 -0.698336 -2.90994 79 115 115 1752393037
0.723904 -0.684985 -2.91918 79 115 115 1752393037
0.726209 -0.671548 -2.92847 255 255 255 1752393037
0.728528 -0.658026 -2.93782 255 255 255 1752393037
0.730863 -0.644417 -2.94724 255 255 255 1752393037
0.733212 -0.63072 -2.95671 255 255 255 1752393037
0.735577 -0.616935 -2.96625 255 255 255 1752393037
0.737956 -0.603061 -2.97584 255 255 255 1752393037
0.740351 -0.589097 -2.9855 255 255 255 1752393037
0.742762 -0.575042 -2.99522 255 255 255 1752393037
0.745189 -0.560895 -3.00501 255 255 255 1752393037
0.747631 -0.546655 -3.01486 255 255 255 1752393037
0.75009 -0.532322 -3.02477 255 255 255 1752393037
0.752565 -0.517894 -3.03475 255 255 255 1752393037
0.755056 -0.503371 -3.0448 255 255 255 1752393037
0.757564 -0.488751 -3.05491 255 255 255 1752393037
0.760088 -0.474033 -3.06509 255 255 255 1752393037
0.762629 -0.459218 -3.07534 255 255 255 1752393037
0.765187 -0.444302 -3.08565 255 255 255 1752393037
0.767763 -0.429287 -3.09604 255 255 255 1752393037
0.770356 -0.41417 -3.10649 255 255 255 1752393037
0.772967 -0.39895 -3.11702 255 255 255 1752393037
0.775595 -0.383628 -3.12762 255 255 255 1752393037
0.778241 -0.3682 -3.13829 255 255 255 1752393037
0.780905 -0.352667 -3.14904 255 255 255 1752393037
0.783588 -0.337027 -3.15985 255 255 255 1752393037
0.786289 -0.321279 -3.17075 255 255 255 1752393037
0.789009 -0.305423 -3.18172 255 255 255 1752393037
0.791748 -0.289456 -3.19276 255 255 255 1752393037
0.794506 -0.273378 -3.20388 255 255 255 1752393037
0.797283 -0.257188 -3.21508 255 255 255 1752393037
0.80008 -0.240884 -3.22636 255 255 255 1752393037
0.802896 -0.224466 -3.23772 255 255 255 1752393037
0.805732 -0.207931 -3.24915 255 255 255 1752393037
0.808589 -0.191279 -3.26067 255 255 255 1752393037
0.811465 -0.174509 -3.27227 255 255 255 1752393037
0.814363 -0.157619 -3.28396 255 255 255 1752393037
0.817281 -0.140607 -3.29572 255 255 255 1752393037
0.82022 -0.123474 -3.30757 255 255 255 1752393037
0.82318 -0.106217 -3.31951 255 255 255 1752393037
0.826162 -0.088835 -3.33153 255 255 255 1752393037
0.829165 -0.071326 -3.34365 255 255 255 1752393037
0.83219 -0.05369 -3.35584 255 255 255 1752393037
0.835238 -0.035924 -3.36813 255 255 255 1752393037
0.838307 -0.018028 -3.38051 255 255 255 1752393037
0.8414 0 -3.39298 204 182 121 1752393037
0.844515 0.018162 -3.40554 204 182 121 1752393037
0.847654 0.036458 -3.4182 204 182 121 1752393037
0.850815 0.054891 -3.43095 204 182 121 1752393037
0.854001 0.073462 -3.4438 204 182 121 1752393037
0.85721 0.092173 -3.45674 204 182 121 1752393037
0.860444 0.111025 -3.46978 204 182 121 1752393037
0.863702 0.13002 -3.48292 204 182 121 1752393037
0.866985 0.149159 -3.49616 204 182 121 1752393037
0.870293 0.168444 -3.5095 204 182 121 1752393037
0.873626 0.187877 -3.52294 204 182 121 1752393037
0.876985 0.207459 -3.53648 204 182 121 1752393037
0.88037 0.227192 -3.55013 204 182 121 1752393037
0.883781 0.247079 -3.56389 204 182 121 1752393037
0.887219 0.26712 -3.57775 204 182 121 1752393037
0.890683 0.287317 -3.59172 204 182 121 1752393037
0.894175 0.307673 -3.6058 204 182 121 1752393037
0.897694 0.328189 -3.61999 204 182 121 1752393037
0.901241 0.348867 -3.63429 204 182 121 1752393037
0.904816 0.36971 -3.64871 204 182 121 1752393037
0.90842 0.390718 -3.66324 204 182 121 1752393037
0.912052 0.411894 -3.67789 204 182 121 1752393037
0.915714 0.433241 -3.69266 204 182 121 1752393037
0.919405 0.454759 -3.70754 204 182 121 1752393037
0.923126 0.476452 -3.72255 204 182 121 1752393037
0.926877 0.498321 -3.73767 204 182 121 1752393037
0.930659 0.520368 -3.75292 204 182 121 1752393037
0.934471 0.542596 -3.7683 204 182 121 1752393037
0.938316 0.565007 -3.7838 204 182 121 1752393037
0.942192 0.587603 -3.79943 204 182 121 1752393037
0.9461 0.610387 -3.81519 204 182 121 1752393037
0.95004 0.63336 -3.83108 204 182 121 1752393037
0.954014 0.656526 -3.84711 204 182 121 1752393037
0.671372 -1.06567 -2.66437 79 115 115 1752393037
0.673323 -1.05452 -2.67211 79 115 115 1752393037
0.675285 -1.0433 -2.67989 79 115 115 1752393037
0.677258 -1.03201 -2.68772 79 115 115 1752393037
0.679243 -1.02066 -2.6956 79 115 115 1752393037
0.681239 -1.00924 -2.70352 79 115 115 1752393037
0.683247 -0.997758 -2.71149 79 115 115 1752393037
0.685267 -0.986205 -2.71951 79 115 115 1752393037
0.6873 -0.974583 -2.72757 79 115 115 1752393037
0.689344 -0.962893 -2.73569 79 115 115 1752393037
0.6914 -0.951132 -2.74385 79 115 115 1752393037
0.693469 -0.939301 -2.75206 79 115 115 1752393037
0.69555 -0.9274 -2.76031 79 115 115 1752393037
0.697643 -0.915426 -2.76862 79 115 115 1752393037
0.69975 -0.903381 -2.77698 79 115 115 1752393037
0.701869 -0.891262 -2.78539 79 115 115 1752393037
0.704001 -0.87907 -2.79385 79 115 115 1752393037
0.706145 -0.866803 -2.80237 79 115 115 1752393037
0.708304 -0.854461 -2.81093 79 115 115 1752393037
0.710475 -0.842044 -2.81955 79 115 115 1752393037
0.712659 -0.829551 -2.82821 79 115 115 1752393037
0.714857 -0.81698 -2.83694 79 115 115 1752393037
0.717069 -0.804331 -2.84572 79 115 115 1752393037
0.719294 -0.791604 -2.85455 79 115 115 1752393037
0.721534 -0.778798 -2.86343 79 115 115 1752393037
0.723787 -0.765912 -2.87238 79 115 115 1752393037
0.726054 -0.752945 -2.88137 255 255 255 1752393037
0.728336 -0.739896 -2.89043 255 255 255 1752393037
0.730632 -0.726766 -2.89954 255 255 255 1752393037
0.732942 -0.713552 -2.90871 255 255 255 1752393037
0.735267 -0.700254 -2.91793 255 255 255 1752393037
0.737607 -0.686872 -2.92722 255 255 255 1752393037
0.739962 -0.673405 -2.93657 255 255 255 1752393037
0.742332 -0.659851 -2.94597 255 255 255 1752393037
0.744717 -0.646209 -2.95544 255 255 255 1752393037
0.747118 -0.632481 -2.96496 255 255 255 1752393037
0.749534 -0.618663 -2.97455 255 255 255 1752393037
0.751965 -0.604755 -2.9842 255 255 255 1752393037
0.754413 -0.590757 -2.99392 255 255 255 1752393037
0.756876 -0.576668 -3.00369 255 255 255 1752393037
0.759356 -0.562486 -3.01353 255 255 255 1752393037
0.761852 -0.548211 -3.02344 255 255 255 1752393037
0.764365 -0.533842 -3.03341 255 255 255 1752393037
0.766894 -0.519378 -3.04345 255 255 255 1752393037
0.76944 -0.504817 -3.05355 255 255 255 1752393037
0.772002 -0.49016 -3.06372 255 255 255 1752393037
0.774582 -0.475405 -3.07396 255 255 255 1752393037
0.77718 -0.460551 -3.08427 255 255 255 1752393037
0.779794 -0.445597 -3.09464 255 255 255 1752393037
0.782427 -0.430542 -3.10509 255 255 255 1752393037
0.785077 -0.415385 -3.11561 255 255 255 1752393037
0.787745 -0.400125 -3.1262 255 255 255 1752393037
0.790432 -0.384761 -3.13686 255 255 255 1752393037
0.793137 -0.369291 -3.14759 255 255 255 1752393037
0.79586 -0.353716 -3.1584 255 255 255 1752393037
0.798603 -0.338033 -3.16929 255 255 255 1752393037
0.801364 -0.322242 -3.18024 255 255 255 1752393037
0.804144 -0.306341 -3.19128 255 255 255 1752393037
0.806944 -0.290329 -3.20239 255 255 255 1752393037
0.809763 -0.274206 -3.21358 255 255 255 1752393037
0.812603 -0.257969 -3.22484 255 255 255 1752393037
0.815462 -0.241618 -3.23619 255 255 255 1752393037
0.818341 -0.225152 -3.24762 255 255 255 1752393037
0.821241 -0.208569 -3.25912 255 255 255 1752393037
0.824161 -0.191868 -3.27071 255 255 255 1752393037
0.827102 -0.175048 -3.28239 255 255 255 1752393037
0.830065 -0.158108 -3.29414 255 255 255 1752393037
0.833048 -0.141045 -3.30598 255 255 255 1752393037
0.836053 -0.12386 -3.31791 255 255 255 1752393037
0.83908 -0.10655 -3.32992 255 255 255 1752393037
0.842129 -0.089114 -3.34202 255 255 255 1752393037
0.8452 -0.071551 -3.35421 204 182 121 1752393037
0.848293 -0.05386 -3.36648 204 182 121 1752393037
0.851409 -0.036038 -3.37885 204 182 121 1752393037
0.854548 -0.018086 -3.39131 204 182 121 1752393037
0.857711 0 -3.40386 204 182 121 1752393037
0.860897 0.01822 -3.4165 204 182 121 1752393037
0.864106 0.036576 -3.42924 204 182 121 1752393037
0.86734 0.055069 -3.44207 204 182 121 1752393037
0.870598 0.073701 -3.455 204 182 121 1752393037
0.87388 0.092474 -3.46803 204 182 121 1752393037
0.877188 0.111389 -3.48115 204 182 121 1752393037
0.88052 0.130447 -3.49438 204 182 121 1752393037
0.883878 0.149651 -3.5077 204 182 121 1752393037
0.887262 0.169002 -3.52113 204 182 121 1752393037
0.890671 0.188502 -3.53466 204 182 121 1752393037
0.894107 0.208152 -3.5483 204 182 121 1752393037
0.89757 0.227954 -3.56204 204 182 121 1752393037
0.901059 0.24791 -3.57589 204 182 121 1752393037
0.904576 0.268022 -3.58984 204 182 121 1752393037
0.90812 0.288292 -3.60391 204 182 121 1752393037
0.911692 0.308721 -3.61808 204 182 121 1752393037
0.915293 0.329312 -3.63237 204 182 121 1752393037
0.918922 0.350065 -3.64678 204 182 121 1752393037
0.922579 0.370984 -3.66129 204 182 121 1752393037
0.926266 0.39207 -3.67592 204 182 121 1752393037
0.929983 0.413326 -3.69067 204 182 121 1752393037
0.93373 0.434752 -3.70554 204 182 121 1752393037
0.937506 0.456352 -3.72053 204 182 121 1752393037
0.941314 0.478128 -3.73564 204 182 121 1752393037
0.945153 0.500081 -3.75087 204 182 121 1752393037
0.949023 0.522214 -3.76623 204 182 121 1752393037
0.952924 0.544528 -3.78172 204 182 121 1752393037
0.956859 0.567027 -3.79733 204 182 121 1752393037
0.960825 0.589713 -3.81307 204 182 121 1752393037
0.964825 0.612587 -3.82894 204 182 121 1752393037
0.968858 0.635653 -3.84495 204 182 121 1752393037
0.683744 -1.06835 -2.67107 79 115 115 1752393037
0.685736 -1.05718 -2.67885 79 115 115 1752393037
0.687739 -1.04594 -2.68667 79 115 115 1752393037
0.689753 -1.03463 -2.69454 79 115 115 1752393037
0.69178 -1.02326 -2.70246 79 115 115 1752393037
0.693818 -1.01182 -2.71042 79 115 115 1752393037
0.695869 -1.00031 -2.71843 79 115 115 1752393037
0.697932 -0.988737 -2.72649 79 115 115 1752393037
0.700007 -0.977093 -2.7346 79 115 115 1752393037
0.702094 -0.965379 -2.74275 79 115 115 1752393037
0.704194 -0.953596 -2.75095 79 115 115 1752393037
0.706306 -0.941742 -2.75921 79 115 115 1752393037
0.708431 -0.929816 -2.76751 79 115 115 1752393037
0.710569 -0.917819 -2.77586 79 115 115 1752393037
0.71272 -0.905749 -2.78426 79 115 115 1752393037
0.714884 -0.893605 -2.79272 79 115 115 1752393037
0.717061 -0.881388 -2.80122 79 115 115 1752393037
0.719252 -0.869096 -2.80978 79 115 115 1752393037
0.721456 -0.856729 -2.81839 79 115 115 1752393037
0.723673 -0.844285 -2.82705 79 115 115 1752393037
0.725904 -0.831765 -2.83577 255 255 255 1752393037
0.728149 -0.819168 -2.84454 255 255 255 1752393037
0.730408 -0.806492 -2.85336 255 255 255 1752393037
0.732681 -0.793737 -2.86224 255 255 255 1752393037
0.734968 -0.780903 -2.87117 255 255 255 1752393037
0.737269 -0.767989 -2.88016 255 255 255 1752393037
0.739585 -0.754993 -2.88921 255 255 255 1752393037
0.741915 -0.741915 -2.89831 255 255 255 1752393037
0.74426 -0.728755 -2.90747 255 255 255 1752393037
0.746621 -0.715511 -2.91669 255 255 255 1752393037
0.748995 -0.702183 -2.92597 255 255 255 1752393037
0.751386 -0.68877 -2.93531 255 255 255 1752393037
0.753791 -0.675271 -2.94471 255 255 255 1752393037
0.756212 -0.661686 -2.95416 255 255 255 1752393037
0.758648 -0.648012 -2.96368 255 255 255 1752393037
0.761101 -0.634251 -2.97326 255 255 255 1752393037
0.763569 -0.6204 -2.9829 255 255 255 1752393037
0.766053 -0.606459 -2.99261 255 255 255 1752393037
0.768554 -0.592427 -3.00238 255 255 255 1752393037
0.771071 -0.578303 -3.01221 255 255 255 1752393037
0.773604 -0.564086 -3.02211 255 255 255 1752393037
0.776154 -0.549776 -3.03207 255 255 255 1752393037
0.778721 -0.535371 -3.0421 255 255 255 1752393037
0.781305 -0.52087 -3.05219 255 255 255 1752393037
0.783906 -0.506273 -3.06235 255 255 255 1752393037
0.786525 -0.491578 -3.07258 255 255 255 1752393037
0.789161 -0.476785 -3.08288 255 255 255 1752393037
0.791815 -0.461892 -3.09325 255 255 255 1752393037
0.794487 -0.446899 -3.10369 255 255 255 1752393037
0.797177 -0.431804 -3.1142 255 255 255 1752393037
0.799885 -0.416607 -3.12477 255 255 255 1752393037
0.802612 -0.401306 -3.13543 255 255 255 1752393037
0.805357 -0.3859 -3.14615 255 255 255 1752393037
0.808122 -0.370389 -3.15695 255 255 255 1752393037
0.810905 -0.354771 -3.16782 255 255 255 1752393037
0.813707 -0.339045 -3.17877 255 255 255 1752393037
0.816529 -0.32321 -3.1898 255 255 255 1752393037
0.819371 -0.307264 -3.2009 255 255 255 1752393037
0.822232 -0.291207 -3.21207 255 255 255 1752393037
0.825114 -0.275038 -3.22333 255 255 255 1752393037
0.828016 -0.258755 -3.23467 255 255 255 1752393037
0.830938 -0.242357 -3.24608 255 255 255 1752393037
0.833881 -0.225843 -3.25758 255 255 255 1752393037
0.836845 -0.209211 -3.26916 255 255 255 1752393037
0.83983 -0.192461 -3.28082 255 255 255 1752393037
0.842836 -0.175591 -3.29256 255 255 255 1752393037
0.845864 -0.1586 -3.30439 204 182 121 1752393037
0.848914 -0.141486 -3.31631 204 182 121 1752393037
0.851985 -0.124248 -3.32831 204 182 121 1752393037
0.855079 -0.106885 -3.34039 204 182 121 1752393037
0.858196 -0.089395 -3.35257 204 182 121 1752393037
0.861336 -0.071778 -3.36483 204 182 121 1752393037
0.864498 -0.054031 -3.37719 204 182 121 1752393037
0.867684 -0.036153 -3.38963 204 182 121 1752393037
0.870893 -0.018144 -3.40217 204 182 121 1752393037
0.874126 0 -3.4148 204 182 121 1752393037
0.877384 0.018279 -3.42753 204 182 121 1752393037
0.880666 0.036694 -3.44035 204 182 121 1752393037
0.883972 0.055248 -3.45326 204 182 121 1752393037
0.887303 0.073942 -3.46627 204 182 121 1752393037
0.89066 0.092777 -3.47939 204 182 121 1752393037
0.894042 0.111755 -3.4926 204 182 121 1752393037
0.897449 0.130878 -3.50591 204 182 121 1752393037
0.900883 0.150147 -3.51933 204 182 121 1752393037
0.904343 0.169564 -3.53284 204 182 121 1752393037
0.90783 0.189131 -3.54646 204 182 121 1752393037
0.911344 0.20885 -3.56019 204 182 121 1752393037
0.914885 0.228721 -3.57402 204 182 121 1752393037
0.918454 0.248748 -3.58797 204 182 121 1752393037
0.922051 0.268931 -3.60202 204 182 121 1752393037
0.925676 0.289274 -3.61618 204 182 121 1752393037
0.929329 0.309776 -3.63045 204 182 121 1752393037
0.933012 0.330442 -3.64484 204 182 121 1752393037
0.936724 0.351272 -3.65934 204 182 121 1752393037
0.940465 0.372268 -3.67395 204 182 121 1752393037
0.944237 0.393432 -3.68869 204 182 121 1752393037
0.948039 0.414767 -3.70354 204 182 121 1752393037
0.951872 0.436275 -3.71851 204 182 121 1752393037
0.955735 0.457957 -3.73361 204 182 121 1752393037
0.959631 0.479815 -3.74883 204 182 121 1752393037
0.963558 0.501853 -3.76417 204 182 121 1752393037
0.967517 0.524072 -3.77963 204 182 121 1752393037
0.97151 0.546474 -3.79523 204 182 121 1752393037
0.975535 0.569062 -3.81095 204 182 121 1752393037
0.979593 0.591838 -3.82681 204 182 121 1752393037
0.983686 0.614804 -3.8428 204 182 121 1752393037
0.987813 0.637962 -3.85892 204 182 121 1752393037
0.696179 -1.07104 -2.6778 79 115 115 1752393037
0.698211 -1.05985 -2.68562 79 115 115 1752393037
0.700256 -1.04859 -2.69348 79 115 115 1752393037
0.702312 -1.03726 -2.7014 79 115 115 1752393037
0.704381 -1.02587 -2.70935 79 115 115 1752393037
0.706462 -1.01441 -2.71736 79 115 115 1752393037
0.708556 -1.00288 -2.72541 79 115 115 1752393037
0.710661 -0.991281 -2.73351 79 115 115 1752393037
0.712779 -0.979615 -2.74166 79 115 115 1752393037
0.71491 -0.967879 -2.74985 79 115 115 1752393037
0.717054 -0.956072 -2.7581 79 115 115 1752393037
0.719211 -0.944195 -2.76639 79 115 115 1752393037
0.72138 -0.932245 -2.77474 79 115 115 1752393037
0.723563 -0.920224 -2.78313 79 115 115 1752393037
0.725759 -0.908129 -2.79158 255 255 255 1752393037
0.727968 -0.895961 -2.80008 255 255 255 1752393037
0.730191 -0.883719 -2.80863 255 255 255 1752393037
0.732428 -0.871401 -2.81723 255 255 255 1752393037
0.734678 -0.859008 -2.82589 255 255 255 1752393037
0.736942 -0.846538 -2.83459 255 255 255 1752393037
0.73922 -0.833992 -2.84336 255 255 255 1752393037
0.741512 -0.821367 -2.85217 255 255 255 1752393037
0.743819 -0.808664 -2.86104 255 255 255 1752393037
0.746139 -0.795882 -2.86997 255 255 255 1752393037
0.748475 -0.78302 -2.87895 255 255 255 1752393037
0.750825 -0.770077 -2.88799 255 255 255 1752393037
0.75319 -0.757052 -2.89709 255 255 255 1752393037
0.755569 -0.743945 -2.90624 255 255 255 1752393037
0.757964 -0.730755 -2.91546 255 255 255 1752393037
0.760374 -0.717481 -2.92473 255 255 255 1752393037
0.7628 -0.704123 -2.93405 255 255 255 1752393037
0.765241 -0.690679 -2.94344 255 255 255 1752393037
0.767697 -0.677148 -2.95289 255 255 255 1752393037
0.77017 -0.663531 -2.9624 255 255 255 1752393037
0.772658 -0.649825 -2.97198 255 255 255 1752393037
0.775163 -0.636031 -2.98161 255 255 255 1752393037
0.777684 -0.622147 -2.99131 255 255 255 1752393037
0.780221 -0.608172 -3.00107 255 255 255 1752393037
0.782775 -0.594106 -3.01089 255 255 255 1752393037
0.785346 -0.579948 -3.02078 255 255 255 1752393037
0.787933 -0.565696 -3.03073 255 255 255 1752393037
0.790538 -0.55135 -3.04075 255 255 255 1752393037
0.79316 -0.536909 -3.05083 255 255 255 1752393037
0.7958 -0.522371 -3.06099 255 255 255 1752393037
0.798457 -0.507737 -3.07121 255 255 255 1752393037
0.801132 -0.493005 -3.0815 255 255 255 1752393037
0.803825 -0.478173 -3.09186 255 255 255 1752393037
0.806536 -0.463241 -3.10228 255 255 255 1752393037
0.809266 -0.448209 -3.11278 255 255 255 1752393037
0.812014 -0.433074 -3.12335 255 255 255 1752393037
0.814781 -0.417836 -3.134 255 255 255 1752393037
0.817567 -0.402494 -3.14471 255 255 255 1752393037
0.820372 -0.387047 -3.1555 255 255 255 1752393037
0.823196 -0.371493 -3.16636 255 255 255 1752393037
0.826039 -0.355832 -3.1773 255 255 255 1752393037
0.828903 -0.340063 -3.18831 255 255 255 1752393037
0.831786 -0.324183 -3.19941 255 255 255 1752393037
0.834689 -0.308193 -3.21057 255 255 255 1752393037
0.837613 -0.292091 -3.22182 255 255 255 1752393037
0.840558 -0.275875 -3.23314 255 255 255 1752393037
0.843523 -0.259545 -3.24455 255 255 255 1752393037
0.846509 -0.2431 -3.25604 204 182 121 1752393037
0.849516 -0.226538 -3.2676 204 182 121 1752393037
0.852545 -0.209857 -3.27925 204 182 121 1752393037
0.855595 -0.193057 -3.29099 204 182 121 1752393037
0.858667 -0.176137 -3.3028 204 182 121 1752393037
0.861761 -0.159094 -3.3147 204 182 121 1752393037
0.864878 -0.141929 -3.32669 204 182 121 1752393037
0.868018 -0.124638 -3.33877 204 182 121 1752393037
0.87118 -0.107222 -3.35093 204 182 121 1752393037
0.874365 -0.089679 -3.36318 204 182 121 1752393037
0.877574 -0.072006 -3.37553 204 182 121 1752393037
0.880807 -0.054203 -3.38796 204 182 121 1752393037
0.884063 -0.036269 -3.40048 204 182 121 1752393037
0.887343 -0.018202 -3.4131 204 182 121 1752393037
0.890648 0 -3.42582 204 182 121 1752393037
0.893978 0.018338 -3.43862 204 182 121 1752393037
0.897333 0.036814 -3.45152 204 182 121 1752393037
0.900713 0.055428 -3.46453 204 182 121 1752393037
0.904118 0.074184 -3.47762 204 182 121 1752393037
0.907549 0.093082 -3.49082 204 182 121 1752393037
0.911007 0.112124 -3.50412 204 182 121 1752393037
0.914491 0.131311 -3.51752 204 182 121 1752393037
0.918001 0.150646 -3.53103 204 182 121 1752393037
0.921539 0.17013 -3.54463 204 182 121 1752393037
0.925104 0.189765 -3.55835 204 182 121 1752393037
0.928697 0.209552 -3.57217 204 182 121 1752393037
0.932317 0.229494 -3.58609 204 182 121 1752393037
0.935967 0.249591 -3.60013 204 182 121 1752393037
0.939644 0.269847 -3.61427 204 182 121 1752393037
0.943351 0.290262 -3.62853 204 182 121 1752393037
0.947087 0.310839 -3.6429 204 182 121 1752393037
0.950853 0.33158 -3.65739 204 182 121 1752393037
0.954649 0.352486 -3.67199 204 182 121 1752393037
0.958476 0.37356 -3.68671 204 182 121 1752393037
0.962333 0.394803 -3.70155 204 182 121 1752393037
0.966221 0.416218 -3.7165 204 182 121 1752393037
0.970141 0.437807 -3.73158 204 182 121 1752393037
0.974093 0.459572 -3.74678 204 182 121 1752393037
0.978077 0.481515 -3.7621 204 182 121 1752393037
0.982094 0.503638 -3.77755 204 182 121 1752393037
0.986144 0.525943 -3.79313 204 182 121 1752393037
0.990228 0.548434 -3.80884 204 182 121 1752393037
0.994345 0.571111 -3.82468 204 182 121 1752393037
0.998497 0.593978 -3.84065 204 182 121 1752393037
1.00182 0.616508 -3.85345 204 182 121 1752393037
1.00469 0.638878 -3.86446 204 182 121 1752393037
0.708676 -1.07375 -2.68457 79 115 115 1752393037
0.71075 -1.06254 -2.69243 79 115 115 1752393037
0.712837 -1.05125 -2.70033 79 115 115 1752393037
0.714936 -1.03991 -2.70828 79 115 115 1752393037
0.717047 -1.02849 -2.71628 79 115 115 1752393037
0.719171 -1.01701 -2.72433 79 115 115 1752393037
0.721307 -1.00546 -2.73242 79 115 115 1752393037
0.723457 -0.993839 -2.74056 79 115 115 1752393037
0.725618 -0.98215 -2.74875 255 255 255 1752393037
0.727793 -0.970391 -2.75699 255 255 255 1752393037
0.729981 -0.958561 -2.76528 255 255 255 1752393037
0.732183 -0.94666 -2.77362 255 255 255 1752393037
0.734397 -0.934687 -2.78201 255 255 255 1752393037
0.736625 -0.922641 -2.79044 255 255 255 1752393037
0.738866 -0.910522 -2.79894 255 255 255 1752393037
0.741122 -0.898329 -2.80748 255 255 255 1752393037
0.743391 -0.886062 -2.81607 255 255 255 1752393037
0.745674 -0.873718 -2.82472 255 255 255 1752393037
0.74797 -0.861299 -2.83342 255 255 255 1752393037
0.750282 -0.848803 -2.84218 255 255 255 1752393037
0.752607 -0.83623 -2.85099 255 255 255 1752393037
0.754947 -0.823579 -2.85985 255 255 255 1752393037
0.757302 -0.810848 -2.86877 255 255 255 1752393037
0.759671 -0.798038 -2.87775 255 255 255 1752393037
0.762055 -0.785148 -2.88678 255 255 255 1752393037
0.764454 -0.772176 -2.89587 255 255 255 1752393037
0.766869 -0.759123 -2.90501 255 255 255 1752393037
0.769298 -0.745986 -2.91422 255 255 255 1752393037
0.771743 -0.732766 -2.92348 255 255 255 1752393037
0.774204 -0.719462 -2.9328 255 255 255 1752393037
0.77668 -0.706073 -2.94218 255 255 255 1752393037
0.779173 -0.692598 -2.95162 255 255 255 1752393037
0.781681 -0.679036 -2.96112 255 255 255 1752393037
0.784206 -0.665387 -2.97069 255 255 255 1752393037
0.786747 -0.651649 -2.98031 255 255 255 1752393037
0.789304 -0.637821 -2.99 255 255 255 1752393037
0.791878 -0.623904 -2.99975 255 255 255 1752393037
0.794469 -0.609896 -3.00957 255 255 255 1752393037
0.797077 -0.595795 -3.01945 255 255 255 1752393037
0.799703 -0.581602 -3.02939 255 255 255 1752393037
0.802345 -0.567315 -3.0394 255 255 255 1752393037
0.805005 -0.552933 -3.04948 255 255 255 1752393037
0.807683 -0.538456 -3.05962 255 255 255 1752393037
0.810379 -0.523881 -3.06984 255 255 255 1752393037
0.813093 -0.50921 -3.08012 255 255 255 1752393037
0.815825 -0.494439 -3.09047 255 255 255 1752393037
0.818575 -0.479569 -3.10088 255 255 255 1752393037
0.821344 -0.464599 -3.11137 255 255 255 1752393037
0.824132 -0.449527 -3.12193 255 255 255 1752393037
0.826939 -0.434352 -3.13257 255 255 255 1752393037
0.829765 -0.419073 -3.14327 255 255 255 1752393037
0.83261 -0.40369 -3.15405 255 255 255 1752393037
0.835475 -0.388201 -3.16491 255 255 255 1752393037
0.83836 -0.372604 -3.17583 255 255 255 1752393037
0.841265 -0.3569 -3.18684 255 255 255 1752393037
0.84419 -0.341087 -3.19792 204 182 121 1752393037
0.847135 -0.325163 -3.20907 204 182 121 1752393037
0.850101 -0.309128 -3.22031 204 182 121 1752393037
0.853088 -0.29298 -3.23162 204 182 121 1752393037
0.856095 -0.276718 -3.24302 204 182 121 1752393037
0.859125 -0.260341 -3.25449 204 182 121 1752393037
0.862175 -0.243847 -3.26605 204 182 121 1752393037
0.865247 -0.227237 -3.27769 204 182 121 1752393037
0.868342 -0.210507 -3.28941 204 182 121 1752393037
0.871458 -0.193657 -3.30121 204 182 121 1752393037
0.874597 -0.176686 -3.3131 204 182 121 1752393037
0.877759 -0.159593 -3.32508 204 182 121 1752393037
0.880943 -0.142375 -3.33715 204 182 121 1752393037
0.884151 -0.125031 -3.3493 204 182 121 1752393037
0.887382 -0.107561 -3.36154 204 182 121 1752393037
0.890637 -0.089963 -3.37387 204 182 121 1752393037
0.893916 -0.072236 -3.38629 204 182 121 1752393037
0.89722 -0.054377 -3.3988 204 182 121 1752393037
0.900547 -0.036386 -3.41141 204 182 121 1752393037
0.9039 -0.018261 -3.42411 204 182 121 1752393037
0.907277 0 -3.4369 204 182 121 1752393037
0.91068 0.018398 -3.44979 204 182 121 1752393037
0.914108 0.036934 -3.46278 204 182 121 1752393037
0.917563 0.05561 -3.47586 204 182 121 1752393037
0.921043 0.074428 -3.48905 204 182 121 1752393037
0.92455 0.093389 -3.50233 204 182 121 1752393037
0.928084 0.112495 -3.51572 204 182 121 1752393037
0.931645 0.131748 -3.52921 204 182 121 1752393037
0.935234 0.151149 -3.5428 204 182 121 1752393037
0.93885 0.1707 -3.5565 204 182 121 1752393037
0.942494 0.190403 -3.57031 204 182 121 1752393037
0.946167 0.210259 -3.58422 204 182 121 1752393037
0.949868 0.230271 -3.59824 204 182 121 1752393037
0.953599 0.25044 -3.61237 204 182 121 1752393037
0.957358 0.270768 -3.62662 204 182 121 1752393037
0.961148 0.291257 -3.64097 204 182 121 1752393037
0.964968 0.311909 -3.65544 204 182 121 1752393037
0.968818 0.332725 -3.67003 204 182 121 1752393037
0.972699 0.353709 -3.68473 204 182 121 1752393037
0.976612 0.374861 -3.69955 204 182 121 1752393037
0.980555 0.396184 -3.71449 204 182 121 1752393037
0.984531 0.41768 -3.72955 204 182 121 1752393037
0.98854 0.439351 -3.74474 204 182 121 1752393037
0.992581 0.461199 -3.76004 204 182 121 1752393037
0.996655 0.483227 -3.77548 204 182 121 1752393037
1.00052 0.505313 -3.79012 204 182 121 1752393037
1.00333 0.527002 -3.80077 204 182 121 1752393037
1.00616 0.548813 -3.81148 204 182 121 1752393037
1.009 0.570748 -3.82224 204 182 121 1752393037
1.01186 0.592806 -3.83307 204 182 121 1752393037
1.01473 0.614991 -3.84397 204 182 121 1752393037
1.01763 0.637301 -3.85492 204 182 121 1752393037
0.721236 -1.07647 -2.69137 79 115 115 1752393037
0.723353 -1.06524 -2.69927 79 115 115 1752393037
0.725482 -1.05393 -2.70722 79 115 115 1752393037
0.727624 -1.04256 -2.71521 255 255 255 1752393037
0.729778 -1.03113 -2.72324 255 255 255 1752393037
0.731945 -1.01962 -2.73133 255 255 255 1752393037
0.734125 -1.00805 -2.73947 255 255 255 1752393037
0.736318 -0.99641 -2.74765 255 255 255 1752393037
0.738524 -0.984698 -2.75588 255 255 255 1752393037
0.740743 -0.972916 -2.76416 255 255 255 1752393037
0.742976 -0.961063 -2.7725 255 255 255 1752393037
0.745222 -0.949138 -2.78088 255 255 255 1752393037
0.747482 -0.937141 -2.78931 255 255 255 1752393037
0.749755 -0.925071 -2.79779 255 255 255 1752393037
0.752043 -0.912928 -2.80633 255 255 255 1752393037
0.754344 -0.90071 -2.81492 255 255 255 1752393037
0.75666 -0.888417 -2.82356 255 255 255 1752393037
0.75899 -0.876048 -2.83225 255 255 255 1752393037
0.761334 -0.863603 -2.841 255 255 255 1752393037
0.763693 -0.851081 -2.8498 255 255 255 1752393037
0.766066 -0.838481 -2.85866 255 255 255 1752393037
0.768455 -0.825802 -2.86757 255 255 255 1752393037
0.770858 -0.813044 -2.87654 255 255 255 1752393037
0.773276 -0.800206 -2.88557 255 255 255 1752393037
0.77571 -0.787287 -2.89464 255 255 255 1752393037
0.778158 -0.774287 -2.90378 255 255 255 1752393037
0.780623 -0.761204 -2.91298 255 255 255 1752393037
0.783103 -0.748038 -2.92223 255 255 255 1752393037
0.785599 -0.734789 -2.93155 255 255 255 1752393037
0.78811 -0.721454 -2.94092 255 255 255 1752393037
0.790638 -0.708034 -2.95035 255 255 255 1752393037
0.793183 -0.694528 -2.95985 255 255 255 1752393037
0.795743 -0.680935 -2.9694 255 255 255 1752393037
0.798321 -0.667253 -2.97902 255 255 255 1752393037
0.800915 -0.653483 -2.9887 255 255 255 1752393037
0.803526 -0.639622 -2.99844 255 255 255 1752393037
0.806154 -0.625672 -3.00825 255 255 255 1752393037
0.808799 -0.611629 -3.01812 255 255 255 1752393037
0.811462 -0.597494 -3.02806 255 255 255 1752393037
0.814142 -0.583266 -3.03806 255 255 255 1752393037
0.81684 -0.568943 -3.04813 255 255 255 1752393037
0.819556 -0.554525 -3.05826 255 255 255 1752393037
0.82229 -0.540011 -3.06846 255 255 255 1752393037
0.825043 -0.5254 -3.07874 255 255 255 1752393037
0.827813 -0.510691 -3.08908 255 255 255 1752393037
0.830603 -0.495882 -3.09949 255 255 255 1752393037
0.833412 -0.480974 -3.10997 255 255 255 1752393037
0.836239 -0.465964 -3.12052 255 255 255 1752393037
0.839086 -0.450852 -3.13114 255 255 255 1752393037
0.841952 -0.435637 -3.14184 255 255 255 1752393037
0.844838 -0.420317 -3.15261 204 182 121 1752393037
0.847743 -0.404892 -3.16345 204 182 121 1752393037
0.850669 -0.389361 -3.17437 204 182 121 1752393037
0.853615 -0.373722 -3.18536 204 182 121 1752393037
0.856581 -0.357974 -3.19643 204 182 121 1752393037
0.859569 -0.342117 -3.20758 204 182 121 1752393037
0.862577 -0.326148 -3.2188 204 182 121 1752393037
0.865606 -0.310068 -3.2301 204 182 121 1752393037
0.868656 -0.293874 -3.24149 204 182 121 1752393037
0.871728 -0.277565 -3.25295 204 182 121 1752393037
0.874822 -0.261141 -3.26449 204 182 121 1752393037
0.877938 -0.2446 -3.27612 204 182 121 1752393037
0.881076 -0.22794 -3.28783 204 182 121 1752393037
0.884237 -0.211161 -3.29963 204 182 121 1752393037
0.88742 -0.194261 -3.31151 204 182 121 1752393037
0.890627 -0.177239 -3.32347 204 182 121 1752393037
0.893856 -0.160094 -3.33552 204 182 121 1752393037
0.89711 -0.142823 -3.34766 204 182 121 1752393037
0.900387 -0.125427 -3.35989 204 182 121 1752393037
0.903688 -0.107903 -3.37221 204 182 121 1752393037
0.907013 -0.09025 -3.38462 204 182 121 1752393037
0.910363 -0.072467 -3.39712 204 182 121 1752393037
0.913738 -0.054552 -3.40971 204 182 121 1752393037
0.917138 -0.036503 -3.4224 204 182 121 1752393037
0.920563 -0.01832 -3.43518 204 182 121 1752393037
0.924014 0 -3.44806 204 182 121 1752393037
0.927491 0.018458 -3.46103 204 182 121 1752393037
0.930994 0.037054 -3.4741 204 182 121 1752393037
0.934523 0.055792 -3.48728 204 182 121 1752393037
0.93808 0.074673 -3.50055 204 182 121 1752393037
0.941664 0.093698 -3.51392 204 182 121 1752393037
0.945275 0.112869 -3.5274 204 182 121 1752393037
0.948914 0.132187 -3.54098 204 182 121 1752393037
0.952581 0.151655 -3.55466 204 182 121 1752393037
0.956277 0.171273 -3.56845 204 182 121 1752393037
0.960001 0.191045 -3.58235 204 182 121 1752393037
0.963755 0.210971 -3.59636 204 182 121 1752393037
0.967538 0.231054 -3.61047 204 182 121 1752393037
0.971351 0.251295 -3.6247 204 182 121 1752393037
0.975194 0.271696 -3.63904 204 182 121 1752393037
0.979067 0.292259 -3.6535 204 182 121 1752393037
0.982972 0.312986 -3.66807 204 182 121 1752393037
0.986907 0.333879 -3.68275 204 182 121 1752393037
0.990875 0.35494 -3.69756 204 182 121 1752393037
0.994874 0.376171 -3.71248 204 182 121 1752393037
0.998906 0.397574 -3.72753 204 182 121 1752393037
1.00202 0.418754 -3.73915 204 182 121 1752393037
1.0048 0.439911 -3.74951 204 182 121 1752393037
1.00759 0.461185 -3.75993 204 182 121 1752393037
1.0104 0.482578 -3.77041 204 182 121 1752393037
1.01322 0.50409 -3.78095 204 182 121 1752393037
1.01606 0.525723 -3.79154 204 182 121 1752393037
1.01892 0.547478 -3.8022 204 182 121 1752393037
1.02179 0.569355 -3.81292 204 182 121 1752393037
1.02468 0.591356 -3.82369 204 182 121 1752393037
1.02758 0.613481 -3.83453 204 182 121 1752393037
1.0305 0.635732 -3.84543 204 182 121 1752393037
1.03344 0.65811 -3.85639 204 182 121 1752393037
0.73386 -1.07921 -2.69821 255 255 255 1752393037
0.736019 -1.06795 -2.70615 255 255 255 1752393037
0.738191 -1.05663 -2.71413 255 255 255 1752393037
0.740376 -1.04524 -2.72216 255 255 255 1752393037
0.742574 -1.03378 -2.73024 255 255 255 1752393037
0.744784 -1.02225 -2.73837 255 255 255 1752393037
0.747008 -1.01066 -2.74655 255 255 255 1752393037
0.749246 -0.998994 -2.75478 255 255 255 1752393037
0.751496 -0.98726 -2.76305 255 255 255 1752393037
0.75376 -0.975455 -2.77137 255 255 255 1752393037
0.756038 -0.963578 -2.77975 255 255 255 1752393037
0.75833 -0.95163 -2.78818 255 255 255 1752393037
0.760636 -0.939609 -2.79665 255 255 255 1752393037
0.762955 -0.927514 -2.80518 255 255 255 1752393037
0.765289 -0.915346 -2.81376 255 255 255 1752393037
0.767638 -0.903103 -2.8224 255 255 255 1752393037
0.77 -0.890785 -2.83108 255 255 255 1752393037
0.772377 -0.87839 -2.83982 255 255 255 1752393037
0.774769 -0.865919 -2.84862 255 255 255 1752393037
0.777176 -0.85337 -2.85747 255 255 255 1752393037
0.779598 -0.840743 -2.86637 255 255 255 1752393037
0.782035 -0.828037 -2.87533 255 255 255 1752393037
0.784488 -0.815252 -2.88435 255 255 255 1752393037
0.786955 -0.802386 -2.89342 255 255 255 1752393037
0.789438 -0.789438 -2.90255 255 255 255 1752393037
0.791938 -0.77641 -2.91174 255 255 255 1752393037
0.794453 -0.763298 -2.92099 255 255 255 1752393037
0.796984 -0.750102 -2.9303 255 255 255 1752393037
0.799531 -0.736823 -2.93966 255 255 255 1752393037
0.802095 -0.723458 -2.94909 255 255 255 1752393037
0.804674 -0.710007 -2.95857 255 255 255 1752393037
0.807271 -0.696469 -2.96812 255 255 255 1752393037
0.809885 -0.682844 -2.97773 255 255 255 1752393037
0.812515 -0.66913 -2.9874 255 255 255 1752393037
0.815163 -0.655327 -2.99714 255 255 255 1752393037
0.817828 -0.641433 -3.00693 255 255 255 1752393037
0.82051 -0.627449 -3.0168 255 255 255 1752393037
0.82321 -0.613372 -3.02672 255 255 255 1752393037
0.825928 -0.599203 -3.03672 255 255 255 1752393037
0.828664 -0.584939 -3.04678 255 255 255 1752393037
0.831418 -0.570581 -3.0569 255 255 255 1752393037
0.83419 -0.556127 -3.0671 255 255 255 1752393037
0.836982 -0.541576 -3.07736 255 255 255 1752393037
0.839791 -0.526928 -3.08769 255 255 255 1752393037
0.84262 -0.512181 -3.09809 255 255 255 1752393037
0.845468 -0.497334 -3.10856 204 182 121 1752393037
0.848335 -0.482386 -3.1191 204 182 121 1752393037
0.851221 -0.467337 -3.12971 204 182 121 1752393037
0.854128 -0.452185 -3.1404 204 182 121 1752393037
0.857054 -0.436929 -3.15116 204 182 121 1752393037
0.86 -0.421569 -3.16199 204 182 121 1752393037
0.862967 -0.406102 -3.1729 204 182 121 1752393037
0.865954 -0.390528 -3.18388 204 182 121 1752393037
0.868962 -0.374846 -3.19494 204 182 121 1752393037
0.87199 -0.359055 -3.20608 204 182 121 1752393037
0.87504 -0.343153 -3.21729 204 182 121 1752393037
0.878112 -0.32714 -3.22858 204 182 121 1752393037
0.881205 -0.311013 -3.23995 204 182 121 1752393037
0.88432 -0.294773 -3.25141 204 182 121 1752393037
0.887457 -0.278418 -3.26294 204 182 121 1752393037
0.890616 -0.261946 -3.27456 204 182 121 1752393037
0.893798 -0.245356 -3.28626 204 182 121 1752393037
0.897003 -0.228648 -3.29804 204 182 121 1752393037
0.900231 -0.211819 -3.30991 204 182 121 1752393037
0.903482 -0.194869 -3.32186 204 182 121 1752393037
0.906757 -0.177795 -3.3339 204 182 121 1752393037
0.910056 -0.160598 -3.34603 204 182 121 1752393037
0.913378 -0.143275 -3.35825 204 182 121 1752393037
0.916725 -0.125825 -3.37055 204 182 121 1752393037
0.920097 -0.108247 -3.38295 204 182 121 1752393037
0.923493 -0.090539 -3.39544 204 182 121 1752393037
0.926915 -0.072699 -3.40802 204 182 121 1752393037
0.930362 -0.054727 -3.42069 204 182 121 1752393037
0.933835 -0.036621 -3.43346 204 182 121 1752393037
0.937334 -0.018379 -3.44633 204 182 121 1752393037
0.940859 0 -3.45929 204 182 121 1752393037
0.944411 0.018518 -3.47235 204 182 121 1752393037
0.94799 0.037176 -3.48551 204 182 121 1752393037
0.951596 0.055976 -3.49876 204 182 121 1752393037
0.95523 0.07492 -3.51212 204 182 121 1752393037
0.958891 0.094009 -3.52559 204 182 121 1752393037
0.96258 0.113245 -3.53915 204 182 121 1752393037
0.966299 0.132629 -3.55282 204 182 121 1752393037
0.970045 0.152164 -3.5666 204 182 121 1752393037
0.973821 0.171851 -3.58048 204 182 121 1752393037
0.977627 0.191692 -3.59447 204 182 121 1752393037
0.981463 0.211688 -3.60858 204 182 121 1752393037
0.985328 0.231842 -3.62279 204 182 121 1752393037
0.989224 0.252155 -3.63711 204 182 121 1752393037
0.993152 0.27263 -3.65155 204 182 121 1752393037
0.99711 0.293268 -3.66611 204 182 121 1752393037
1.00075 0.313961 -3.67949 204 182 121 1752393037
1.00348 0.334493 -3.68952 204 182 121 1752393037
1.00622 0.355138 -3.69961 204 182 121 1752393037
1.00898 0.375895 -3.70976 204 182 121 1752393037
1.01176 0.396767 -3.71996 204 182 121 1752393037
1.01455 0.417754 -3.73022 204 182 121 1752393037
1.01735 0.438858 -3.74053 204 182 121 1752393037
1.02017 0.460078 -3.7509 204 182 121 1752393037
1.02301 0.481416 -3.76133 204 182 121 1752393037
1.02586 0.502873 -3.77182 204 182 121 1752393037
1.02873 0.52445 -3.78236 204 182 121 1752393037
1.03161 0.546148 -3.79297 204 182 121 1752393037
1.03451 0.567968 -3.80363 204 182 121 1752393037
1.03743 0.589912 -3.81436 204 182 121 1752393037
1.04036 0.611979 -3.82514 204 182 121 1752393037
1.04331 0.634171 -3.83599 204 182 121 1752393037
1.04628 0.65649 -3.84689 204 182 121 1752393037
0.746549 -1.08195 -2.70508 255 255 255 1752393037
0.748751 -1.07068 -2.71306 255 255 255 1752393037
0.750966 -1.05933 -2.72109 255 255 255 1752393037
0.753194 -1.04792 -2.72916 255 255 255 1752393037
0.755436 -1.03644 -2.73728 255 255 255 1752393037
0.75769 -1.02489 -2.74545 255 255 255 1752393037
0.759959 -1.01328 -2.75367 255 255 255 1752393037
0.762241 -1.00159 -2.76194 255 255 255 1752393037
0.764536 -0.989834 -2.77026 255 255 255 1752393037
0.766846 -0.978006 -2.77863 255 255 255 1752393037
0.769169 -0.966106 -2.78704 255 255 255 1752393037
0.771507 -0.954134 -2.79551 255 255 255 1752393037
0.773859 -0.942089 -2.80404 255 255 255 1752393037
0.776225 -0.92997 -2.81261 255 255 255 1752393037
0.778606 -0.917777 -2.82124 255 255 255 1752393037
0.781001 -0.905509 -2.82992 255 255 255 1752393037
0.783412 -0.893165 -2.83865 255 255 255 1752393037
0.785837 -0.880745 -2.84744 255 255 255 1752393037
0.788277 -0.868247 -2.85628 255 255 255 1752393037
0.790733 -0.855672 -2.86518 255 255 255 1752393037
0.793203 -0.843018 -2.87413 255 255 255 1752393037
0.79569 -0.830285 -2.88314 255 255 255 1752393037
0.798192 -0.817472 -2.8922 255 255 255 1752393037
0.80071 -0.804578 -2.90133 255 255 255 1752393037
0.803243 -0.791602 -2.91051 255 255 255 1752393037
0.805793 -0.778544 -2.91975 255 255 255 1752393037
0.808359 -0.765403 -2.92905 255 255 255 1752393037
0.810942 -0.752178 -2.9384 255 255 255 1752393037
0.813541 -0.738868 -2.94782 255 255 255 1752393037
0.816156 -0.725472 -2.9573 255 255 255 1752393037
0.818789 -0.711991 -2.96684 255 255 255 1752393037
0.821439 -0.698421 -2.97644 255 255 255 1752393037
0.824106 -0.684764 -2.9861 255 255 255 1752393037
0.82679 -0.671018 -2.99583 255 255 255 1752393037
0.829492 -0.657182 -3.00562 255 255 255 1752393037
0.832211 -0.643255 -3.01547 255 255 255 1752393037
0.834948 -0.629236 -3.02539 255 255 255 1752393037
0.837704 -0.615125 -3.03538 255 255 255 1752393037
0.840478 -0.600921 -3.04543 255 255 255 1752393037
0.84327 -0.586622 -3.05554 255 255 255 1752393037
0.84608 -0.572228 -3.06573 204 182 121 1752393037
0.84891 -0.557738 -3.07598 204 182 121 1752393037
0.851758 -0.54315 -3.0863 204 182 121 1752393037
0.854626 -0.528464 -3.09669 204 182 121 1752393037
0.857513 -0.513679 -3.10715 204 182 121 1752393037
0.860419 -0.498794 -3.11768 204 182 121 1752393037
0.863346 -0.483807 -3.12829 204 182 121 1752393037
0.866292 -0.468718 -3.13896 204 182 121 1752393037
0.869258 -0.453526 -3.14971 204 182 121 1752393037
0.872245 -0.438229 -3.16053 204 182 121 1752393037
0.875253 -0.422827 -3.17143 204 182 121 1752393037
0.878281 -0.407319 -3.1824 204 182 121 1752393037
0.88133 -0.391702 -3.19345 204 182 121 1752393037
0.884401 -0.375977 -3.20458 204 182 121 1752393037
0.887493 -0.360142 -3.21578 204 182 121 1752393037
0.890606 -0.344196 -3.22707 204 182 121 1752393037
0.893742 -0.328137 -3.23843 204 182 121 1752393037
0.8969 -0.311965 -3.24987 204 182 121 1752393037
0.90008 -0.295678 -3.26139 204 182 121 1752393037
0.903283 -0.279276 -3.273 204 182 121 1752393037
0.906508 -0.262756 -3.28469 204 182 121 1752393037
0.909757 -0.246118 -3.29646 204 182 121 1752393037
0.913029 -0.22936 -3.30831 204 182 121 1752393037
0.916325 -0.212481 -3.32026 204 182 121 1752393037
0.919645 -0.19548 -3.33228 204 182 121 1752393037
0.922989 -0.178355 -3.3444 204 182 121 1752393037
0.926357 -0.161106 -3.35661 204 182 121 1752393037
0.92975 -0.143729 -3.3689 204 182 121 1752393037
0.933168 -0.126226 -3.38128 204 182 121 1752393037
0.936611 -0.108593 -3.39376 204 182 121 1752393037
0.94008 -0.090829 -3.40633 204 182 121 1752393037
0.943574 -0.072933 -3.41899 204 182 121 1752393037
0.947094 -0.054904 -3.43175 204 182 121 1752393037
0.950641 -0.03674 -3.4446 204 182 121 1752393037
0.954215 -0.018439 -3.45755 204 182 121 1752393037
0.957815 0 -3.47059 204 182 121 1752393037
0.961443 0.018579 -3.48374 204 182 121 1752393037
0.965098 0.037298 -3.49698 204 182 121 1752393037
0.968781 0.056161 -3.51033 204 182 121 1752393037
0.972493 0.075169 -3.52378 204 182 121 1752393037
0.976233 0.094322 -3.53733 204 182 121 1752393037
0.980002 0.113623 -3.55098 204 182 121 1752393037
0.9838 0.133074 -3.56475 204 182 121 1752393037
0.987627 0.152677 -3.57861 204 182 121 1752393037
0.991485 0.172432 -3.59259 204 182 121 1752393037
0.995373 0.192343 -3.60668 204 182 121 1752393037
0.999291 0.21241 -3.62088 204 182 121 1752393037
1.0022 0.232395 -3.63143 204 182 121 1752393037
1.0049 0.252439 -3.6412 204 182 121 1752393037
1.00761 0.272591 -3.65103 204 182 121 1752393037
1.01034 0.292852 -3.66091 204 182 121 1752393037
1.01308 0.313223 -3.67084 204 182 121 1752393037
1.01584 0.333705 -3.68083 204 182 121 1752393037
1.01861 0.354298 -3.69087 204 182 121 1752393037
1.02139 0.375005 -3.70097 204 182 121 1752393037
1.0242 0.395825 -3.71112 204 182 121 1752393037
1.02701 0.416759 -3.72133 204 182 121 1752393037
1.02985 0.437809 -3.7316 204 182 121 1752393037
1.0327 0.458976 -3.74192 204 182 121 1752393037
1.03556 0.480259 -3.7523 204 182 121 1752393037
1.03844 0.501662 -3.76273 204 182 121 1752393037
1.04134 0.523183 -3.77323 204 182 121 1752393037
1.04425 0.544825 -3.78378 204 182 121 1752393037
1.04718 0.566589 -3.79439 204 182 121 1752393037
1.05012 0.588475 -3.80506 204 182 121 1752393037
1.05308 0.610484 -3.8158 204 182 121 1752393037
1.05606 0.632618 -3.82659 204 182 121 1752393037
1.05906 0.654877 -3.83744 204 182 121 1752393037
0.759302 -1.08472 -2.71199 255 255 255 1752393037
0.761548 -1.07342 -2.72001 255 255 255 1752393037
0.763806 -1.06205 -2.72807 255 255 255 1752393037
0.766078 -1.05062 -2.73619 255 255 255 1752393037
0.768364 -1.03912 -2.74435 255 255 255 1752393037
0.770663 -1.02755 -2.75256 255 255 255 1752393037
0.772976 -1.01591 -2.76083 255 255 255 1752393037
0.775303 -1.0042 -2.76914 255 255 255 1752393037
0.777644 -0.992422 -2.7775 255 255 255 1752393037
0.78 -0.980571 -2.78591 255 255 255 1752393037
0.782369 -0.968648 -2.79438 255 255 255 1752393037
0.784754 -0.956652 -2.80289 255 255 255 1752393037
0.787152 -0.944582 -2.81146 255 255 255 1752393037
0.789565 -0.932439 -2.82008 255 255 255 1752393037
0.791994 -0.920221 -2.82875 255 255 255 1752393037
0.794437 -0.907928 -2.83748 255 255 255 1752393037
0.796895 -0.895558 -2.84626 255 255 255 1752393037
0.799369 -0.883112 -2.85509 255 255 255 1752393037
0.801858 -0.870589 -2.86398 255 255 255 1752393037
0.804363 -0.857987 -2.87293 255 255 255 1752393037
0.806883 -0.845306 -2.88193 255 255 255 1752393037
0.809419 -0.832545 -2.89099 255 255 255 1752393037
0.811971 -0.819704 -2.9001 255 255 255 1752393037
0.81454 -0.806782 -2.90928 255 255 255 1752393037
0.817124 -0.793778 -2.91851 255 255 255 1752393037
0.819725 -0.780691 -2.9278 255 255 255 1752393037
0.822343 -0.76752 -2.93715 255 255 255 1752393037
0.824977 -0.754265 -2.94656 255 255 255 1752393037
0.827628 -0.740925 -2.95603 255 255 255 1752393037
0.830297 -0.727498 -2.96556 255 255 255 1752393037
0.832983 -0.713985 -2.97515 255 255 255 1752393037
0.835686 -0.700384 -2.98481 255 255 255 1752393037
0.838407 -0.686695 -2.99452 255 255 255 1752393037
0.841145 -0.672916 -3.0043 255 255 255 1752393037
0.843902 -0.659047 -3.01415 255 255 255 1752393037
0.846676 -0.645087 -3.02406 204 182 121 1752393037
0.849469 -0.631034 -3.03403 204 182 121 1752393037
0.85228 -0.616889 -3.04408 204 182 121 1752393037
0.85511 -0.602649 -3.05418 204 182 121 1752393037
0.857959 -0.588315 -3.06436 204 182 121 1752393037
0.860827 -0.573885 -3.0746 204 182 121 1752393037
0.863714 -0.559358 -3.08491 204 182 121 1752393037
0.866621 -0.544733 -3.09529 204 182 121 1752393037
0.869547 -0.53001 -3.10575 204 182 121 1752393037
0.872493 -0.515186 -3.11627 204 182 121 1752393037
0.875459 -0.500262 -3.12686 204 182 121 1752393037
0.878445 -0.485236 -3.13753 204 182 121 1752393037
0.881452 -0.470108 -3.14827 204 182 121 1752393037
0.884479 -0.454875 -3.15908 204 182 121 1752393037
0.887527 -0.439537 -3.16997 204 182 121 1752393037
0.890597 -0.424094 -3.18093 204 182 121 1752393037
0.893687 -0.408543 -3.19197 204 182 121 1752393037
0.896799 -0.392884 -3.20308 204 182 121 1752393037
0.899933 -0.377115 -3.21428 204 182 121 1752393037
0.903089 -0.361236 -3.22555 204 182 121 1752393037
0.906267 -0.345245 -3.2369 204 182 121 1752393037
0.909468 -0.329141 -3.24833 204 182 121 1752393037
0.912691 -0.312923 -3.25984 204 182 121 1752393037
0.915937 -0.296589 -3.27144 204 182 121 1752393037
0.919207 -0.280139 -3.28311 204 182 121 1752393037
0.922499 -0.263571 -3.29487 204 182 121 1752393037
0.925816 -0.246884 -3.30672 204 182 121 1752393037
0.929156 -0.230077 -3.31865 204 182 121 1752393037
0.932521 -0.213148 -3.33067 204 182 121 1752393037
0.93591 -0.196095 -3.34277 204 182 121 1752393037
0.939323 -0.178919 -3.35496 204 182 121 1752393037
0.942762 -0.161616 -3.36725 204 182 121 1752393037
0.946226 -0.144187 -3.37962 204 182 121 1752393037
0.949715 -0.126629 -3.39208 204 182 121 1752393037
0.953231 -0.108941 -3.40464 204 182 121 1752393037
0.956772 -0.091121 -3.41729 204 182 121 1752393037
