ply
format ascii 1.0
comment PCL generated
obj_info is_cyberware_data 0
obj_info is_mesh 0
obj_info is_warped 0
obj_info is_interlaced 0
obj_info num_cols 22126
obj_info num_rows 1
obj_info echo_rgb_offset_x 0
obj_info echo_rgb_offset_y 0
obj_info echo_rgb_offset_z 0
obj_info echo_rgb_frontfocus 0.0
obj_info echo_rgb_backfocus 0.0
obj_info echo_rgb_pixelsize 0.0
obj_info echo_rgb_centerpixel 0
obj_info echo_frames 1
obj_info echo_lgincr 0.0
element vertex 945
property float x
property float y
property float z
property uchar red
property uchar green
property uchar blue
property uint label
end_header
-0.294566 0.434097 -3.87614 204 182 121 1752393037
-0.295402 0.45606 -3.88715 204 182 121 1752393037
-0.296244 0.478147 -3.89822 204 182 121 1752393037
-0.29709 0.500361 -3.90935 204 182 121 1752393037
-0.29794 0.522703 -3.92055 204 182 121 1752393037
-0.298796 0.545172 -3.93181 204 182 121 1752393037
-0.299657 0.567771 -3.94314 204 182 121 1752393037
-0.300523 0.590501 -3.95453 204 182 121 1752393037
-0.175119 -0.972886 -2.43239 86 86 86 1752393037
-0.17554 -0.962217 -2.43822 86 86 86 1752393037
-0.175962 -0.951497 -2.44409 86 86 86 1752393037
-0.176386 -0.940725 -2.44998 86 86 86 1752393037
-0.176812 -0.929901 -2.4559 86 86 86 1752393037
-0.177241 -0.919025 -2.46185 86 86 86 1752393037
-0.177671 -0.908096 -2.46783 86 86 86 1752393037
-0.178103 -0.897114 -2.47384 86 86 86 1752393037
-0.178538 -0.886078 -2.47987 86 86 86 1752393037
-0.178975 -0.874988 -2.48594 86 86 86 1752393037
-0.179414 -0.863844 -2.49203 86 86 86 1752393037
-0.179855 -0.852644 -2.49816 86 86 86 1752393037
-0.180298 -0.84139 -2.50432 86 86 86 1752393037
-0.180743 -0.83008 -2.5105 86 86 86 1752393037
-0.181191 -0.818714 -2.51672 86 86 86 1752393037
-0.181641 -0.807292 -2.52297 86 86 86 1752393037
-0.182093 -0.795813 -2.52925 86 86 86 1752393037
-0.182547 -0.784276 -2.53556 86 86 86 1752393037
-0.183004 -0.772682 -2.5419 86 86 86 1752393037
-0.183463 -0.76103 -2.54827 86 86 86 1752393037
-0.183924 -0.749319 -2.55468 86 86 86 1752393037
-0.184387 -0.737549 -2.56112 86 86 86 1752393037
-0.184853 -0.72572 -2.56759 86 86 86 1752393037
-0.185321 -0.71383 -2.57409 86 86 86 1752393037
-0.185792 -0.701881 -2.58063 86 86 86 1752393037
-0.186265 -0.68987 -2.5872 86 86 86 1752393037
-0.18674 -0.677798 -2.5938 86 86 86 1752393037
-0.187218 -0.665664 -2.60044 86 86 86 1752393037
-0.187698 -0.653469 -2.60711 86 86 86 1752393037
-0.188181 -0.64121 -2.61381 86 86 86 1752393037
-0.188666 -0.628888 -2.62055 86 86 86 1752393037
-0.189154 -0.616503 -2.62733 86 86 86 1752393037
-0.189644 -0.604052 -2.63414 0 0 0 1752393037
-0.190137 -0.591537 -2.64098 0 0 0 1752393037
-0.190632 -0.578957 -2.64786 0 0 0 1752393037
-0.19113 -0.566311 -2.65477 0 0 0 1752393037
-0.240044 -0.693461 -3.33419 204 182 121 1752393037
-0.24063 -0.67733 -3.34233 204 182 121 1752393037
-0.241219 -0.66112 -3.35051 204 182 121 1752393037
-0.241811 -0.64483 -3.35873 204 182 121 1752393037
-0.242406 -0.62846 -3.36699 204 182 121 1752393037
-0.243004 -0.61201 -3.37529 204 182 121 1752393037
-0.243605 -0.595478 -3.38364 204 182 121 1752393037
-0.244208 -0.578864 -3.39202 204 182 121 1752393037
-0.244815 -0.562167 -3.40045 204 182 121 1752393037
-0.245425 -0.545388 -3.40892 204 182 121 1752393037
-0.246037 -0.528524 -3.41743 204 182 121 1752393037
-0.246653 -0.511577 -3.42598 204 182 121 1752393037
-0.247272 -0.494544 -3.43458 204 182 121 1752393037
-0.247894 -0.477425 -3.44322 204 182 121 1752393037
-0.248519 -0.46022 -3.4519 204 182 121 1752393037
-0.249147 -0.442929 -3.46063 204 182 121 1752393037
-0.249779 -0.425549 -3.4694 204 182 121 1752393037
-0.250413 -0.408081 -3.47821 204 182 121 1752393037
-0.251051 -0.390524 -3.48707 204 182 121 1752393037
-0.251693 -0.372878 -3.49598 204 182 121 1752393037
-0.252337 -0.355141 -3.50493 204 182 121 1752393037
-0.252985 -0.337313 -3.51393 204 182 121 1752393037
-0.253636 -0.319393 -3.52297 204 182 121 1752393037
-0.25429 -0.301381 -3.53206 204 182 121 1752393037
-0.254948 -0.283276 -3.5412 204 182 121 1752393037
-0.25561 -0.265077 -3.55038 204 182 121 1752393037
-0.256274 -0.246783 -3.55962 204 182 121 1752393037
-0.256942 -0.228393 -3.5689 204 182 121 1752393037
-0.257614 -0.209908 -3.57823 204 182 121 1752393037
-0.258289 -0.191325 -3.58761 204 182 121 1752393037
-0.258968 -0.172645 -3.59703 204 182 121 1752393037
-0.25965 -0.153867 -3.60651 204 182 121 1752393037
-0.260336 -0.134989 -3.61604 204 182 121 1752393037
-0.261026 -0.116011 -3.62562 204 182 121 1752393037
-0.261719 -0.096933 -3.63524 204 182 121 1752393037
-0.262416 -0.077753 -3.64492 204 182 121 1752393037
-0.263116 -0.05847 -3.65465 204 182 121 1752393037
-0.263821 -0.039085 -3.66444 204 182 121 1752393037
-0.264529 -0.019595 -3.67428 204 182 121 1752393037
-0.265241 0 -3.68417 204 182 121 1752393037
-0.265957 0.0197 -3.69411 204 182 121 1752393037
-0.266676 0.039508 -3.7041 204 182 121 1752393037
-0.2674 0.059422 -3.71415 204 182 121 1752393037
-0.268128 0.079445 -3.72426 204 182 121 1752393037
-0.268859 0.099577 -3.73442 204 182 121 1752393037
-0.269595 0.11982 -3.74464 204 182 121 1752393037
-0.270334 0.140173 -3.75491 204 182 121 1752393037
-0.271078 0.160639 -3.76524 204 182 121 1752393037
-0.271825 0.181217 -3.77562 204 182 121 1752393037
-0.272577 0.201909 -3.78607 204 182 121 1752393037
-0.273333 0.222716 -3.79657 204 182 121 1752393037
-0.274093 0.243639 -3.80713 204 182 121 1752393037
-0.274858 0.264678 -3.81774 204 182 121 1752393037
-0.275627 0.285835 -3.82842 204 182 121 1752393037
-0.2764 0.307111 -3.83916 204 182 121 1752393037
-0.277177 0.328506 -3.84996 204 182 121 1752393037
-0.277959 0.350022 -3.86082 204 182 121 1752393037
-0.278745 0.37166 -3.87174 204 182 121 1752393037
-0.279536 0.393421 -3.88272 204 182 121 1752393037
-0.280331 0.415305 -3.89376 204 182 121 1752393037
-0.281131 0.437314 -3.90487 204 182 121 1752393037
-0.281935 0.459449 -3.91604 204 182 121 1752393037
-0.282744 0.481712 -3.92728 204 182 121 1752393037
-0.283557 0.504102 -3.93858 204 182 121 1752393037
-0.284376 0.526621 -3.94994 204 182 121 1752393037
-0.285199 0.549271 -3.96137 204 182 121 1752393037
-0.286026 0.572053 -3.97287 204 182 121 1752393037
-0.165897 -0.975865 -2.43984 86 86 86 1752393037
-0.166296 -0.965171 -2.44571 86 86 86 1752393037
-0.166697 -0.954425 -2.45161 86 86 86 1752393037
-0.167101 -0.943627 -2.45754 86 86 86 1752393037
-0.167506 -0.932777 -2.46349 86 86 86 1752393037
-0.167913 -0.921873 -2.46948 86 86 86 1752393037
-0.168322 -0.910917 -2.4755 86 86 86 1752393037
-0.168733 -0.899908 -2.48154 86 86 86 1752393037
-0.169146 -0.888844 -2.48761 86 86 86 1752393037
-0.169561 -0.877726 -2.49372 86 86 86 1752393037
-0.169978 -0.866554 -2.49985 86 86 86 1752393037
-0.170397 -0.855326 -2.50602 86 86 86 1752393037
-0.170818 -0.844043 -2.51221 86 86 86 1752393037
-0.171242 -0.832704 -2.51844 86 86 86 1752393037
-0.171667 -0.821309 -2.52469 86 86 86 1752393037
-0.172094 -0.809856 -2.53098 86 86 86 1752393037
-0.172524 -0.798347 -2.5373 86 86 86 1752393037
-0.172956 -0.78678 -2.54365 86 86 86 1752393037
-0.17339 -0.775155 -2.55003 86 86 86 1752393037
-0.173826 -0.763472 -2.55645 86 86 86 1752393037
-0.174264 -0.751729 -2.5629 86 86 86 1752393037
-0.174705 -0.739927 -2.56938 86 86 86 1752393037
-0.175148 -0.728066 -2.57589 86 86 86 1752393037
-0.175593 -0.716144 -2.58243 86 86 86 1752393037
-0.17604 -0.704161 -2.58901 86 86 86 1752393037
-0.17649 -0.692117 -2.59562 86 86 86 1752393037
-0.176942 -0.680012 -2.60227 86 86 86 1752393037
-0.177396 -0.667844 -2.60895 86 86 86 1752393037
-0.177853 -0.655614 -2.61567 86 86 86 1752393037
-0.178312 -0.64332 -2.62242 86 86 86 1752393037
-0.178773 -0.630963 -2.6292 86 86 86 1752393037
-0.179237 -0.618542 -2.63602 86 86 86 1752393037
-0.179703 -0.606056 -2.64287 0 0 0 1752393037
-0.180171 -0.593504 -2.64976 0 0 0 1752393037
-0.180642 -0.580887 -2.65669 0 0 0 1752393037
-0.181115 -0.568204 -2.66365 0 0 0 1752393037
-0.228152 -0.697878 -3.35542 204 182 121 1752393037
-0.228713 -0.681654 -3.36367 204 182 121 1752393037
-0.229276 -0.665351 -3.37195 204 182 121 1752393037
-0.229843 -0.648967 -3.38028 204 182 121 1752393037
-0.230412 -0.632502 -3.38865 204 182 121 1752393037
-0.230983 -0.615956 -3.39706 204 182 121 1752393037
-0.231558 -0.599327 -3.40551 204 182 121 1752393037
-0.232136 -0.582615 -3.414 204 182 121 1752393037
-0.232716 -0.565819 -3.42254 204 182 121 1752393037
-0.233299 -0.548939 -3.43112 204 182 121 1752393037
-0.233886 -0.531975 -3.43974 204 182 121 1752393037
-0.234475 -0.514925 -3.4484 204 182 121 1752393037
-0.235067 -0.497789 -3.45711 204 182 121 1752393037
-0.235662 -0.480566 -3.46587 204 182 121 1752393037
-0.23626 -0.463256 -3.47466 204 182 121 1752393037
-0.236862 -0.445857 -3.48351 204 182 121 1752393037
-0.237466 -0.42837 -3.49239 204 182 121 1752393037
-0.238073 -0.410793 -3.50133 204 182 121 1752393037
-0.238684 -0.393126 -3.51031 204 182 121 1752393037
-0.239297 -0.375369 -3.51933 204 182 121 1752393037
-0.239914 -0.357519 -3.5284 204 182 121 1752393037
-0.240534 -0.339578 -3.53752 204 182 121 1752393037
-0.241158 -0.321543 -3.54669 204 182 121 1752393037
-0.241784 -0.303415 -3.5559 204 182 121 1752393037
-0.242414 -0.285193 -3.56516 204 182 121 1752393037
-0.243047 -0.266875 -3.57447 204 182 121 1752393037
-0.243683 -0.248461 -3.58383 204 182 121 1752393037
-0.244323 -0.229951 -3.59324 204 182 121 1752393037
-0.244966 -0.211343 -3.60269 204 182 121 1752393037
-0.245612 -0.192637 -3.6122 204 182 121 1752393037
-0.246262 -0.173832 -3.62176 204 182 121 1752393037
-0.246915 -0.154927 -3.63137 204 182 121 1752393037
-0.247572 -0.135922 -3.64103 204 182 121 1752393037
-0.248232 -0.116815 -3.65074 204 182 121 1752393037
-0.248896 -0.097606 -3.6605 204 182 121 1752393037
-0.249564 -0.078294 -3.67032 204 182 121 1752393037
-0.250235 -0.058879 -3.68018 204 182 121 1752393037
-0.250909 -0.039358 -3.6901 204 182 121 1752393037
-0.251587 -0.019732 -3.70008 204 182 121 1752393037
-0.252269 0 -3.71011 204 182 121 1752393037
-0.252955 0.01984 -3.72019 204 182 121 1752393037
-0.253644 0.039787 -3.73033 204 182 121 1752393037
-0.254337 0.059844 -3.74052 204 182 121 1752393037
-0.255034 0.080011 -3.75077 204 182 121 1752393037
-0.255735 0.100288 -3.76108 204 182 121 1752393037
-0.25644 0.120677 -3.77144 204 182 121 1752393037
-0.257148 0.141179 -3.78186 204 182 121 1752393037
-0.257861 0.161795 -3.79234 204 182 121 1752393037
-0.258577 0.182525 -3.80287 204 182 121 1752393037
-0.259297 0.20337 -3.81347 204 182 121 1752393037
-0.260022 0.224332 -3.82412 204 182 121 1752393037
-0.26075 0.245412 -3.83484 204 182 121 1752393037
-0.261483 0.26661 -3.84561 204 182 121 1752393037
-0.262219 0.287927 -3.85644 204 182 121 1752393037
-0.26296 0.309365 -3.86734 204 182 121 1752393037
-0.263705 0.330924 -3.8783 204 182 121 1752393037
-0.264455 0.352606 -3.88932 204 182 121 1752393037
-0.265208 0.374411 -3.9004 204 182 121 1752393037
-0.265966 0.396341 -3.91154 204 182 121 1752393037
-0.266728 0.418397 -3.92275 204 182 121 1752393037
-0.267495 0.44058 -3.93403 204 182 121 1752393037
-0.268266 0.46289 -3.94536 204 182 121 1752393037
-0.269041 0.485329 -3.95677 204 182 121 1752393037
-0.269821 0.507899 -3.96824 204 182 121 1752393037
-0.270606 0.530599 -3.97978 204 182 121 1752393037
-0.271395 0.553432 -3.99138 204 182 121 1752393037
-0.156618 -0.978862 -2.44733 86 86 86 1752393037
-0.156996 -0.968142 -2.45324 86 86 86 1752393037
-0.157376 -0.95737 -2.45917 86 86 86 1752393037
-0.157758 -0.946546 -2.46514 86 86 86 1752393037
-0.158141 -0.935669 -2.47113 86 86 86 1752393037
-0.158527 -0.924739 -2.47716 86 86 86 1752393037
-0.158914 -0.913756 -2.48321 86 86 86 1752393037
-0.159303 -0.902719 -2.48929 86 86 86 1752393037
-0.159695 -0.891628 -2.4954 86 86 86 1752393037
-0.160088 -0.880482 -2.50155 86 86 86 1752393037
-0.160483 -0.869281 -2.50772 86 86 86 1752393037
-0.16088 -0.858025 -2.51392 86 86 86 1752393037
-0.161279 -0.846713 -2.52016 86 86 86 1752393037
-0.161679 -0.835344 -2.52642 86 86 86 1752393037
-0.162082 -0.823919 -2.53272 86 86 86 1752393037
-0.162487 -0.812437 -2.53905 86 86 86 1752393037
-0.162894 -0.800897 -2.54541 86 86 86 1752393037
-0.163303 -0.7893 -2.5518 86 86 86 1752393037
-0.163714 -0.777644 -2.55822 86 86 86 1752393037
-0.164128 -0.765929 -2.56468 86 86 86 1752393037
-0.164543 -0.754155 -2.57117 86 86 86 1752393037
-0.16496 -0.742321 -2.57769 86 86 86 1752393037
-0.16538 -0.730427 -2.58424 86 86 86 1752393037
-0.165801 -0.718472 -2.59083 86 86 86 1752393037
-0.166225 -0.706457 -2.59745 86 86 86 1752393037
-0.166651 -0.694379 -2.60411 86 86 86 1752393037
-0.167079 -0.68224 -2.6108 86 86 86 1752393037
-0.167509 -0.670038 -2.61752 86 86 86 1752393037
-0.167942 -0.657773 -2.62428 86 86 86 1752393037
-0.168377 -0.645445 -2.63108 86 86 86 1752393037
-0.168814 -0.633052 -2.6379 86 86 86 1752393037
-0.169253 -0.620595 -2.64477 86 86 86 1752393037
-0.169695 -0.608073 -2.65167 0 0 0 1752393037
-0.170138 -0.595484 -2.6586 0 0 0 1752393037
-0.170585 -0.58283 -2.66557 0 0 0 1752393037
-0.215576 -0.718587 -3.36862 204 182 121 1752393037
-0.216108 -0.702351 -3.37693 204 182 121 1752393037
-0.216642 -0.686034 -3.38528 204 182 121 1752393037
-0.217179 -0.669637 -3.39367 204 182 121 1752393037
-0.217719 -0.653158 -3.40211 204 182 121 1752393037
-0.218262 -0.636597 -3.41058 204 182 121 1752393037
-0.218807 -0.619953 -3.4191 204 182 121 1752393037
-0.219355 -0.603226 -3.42766 204 182 121 1752393037
-0.219905 -0.586415 -3.43627 204 182 121 1752393037
-0.220459 -0.569519 -3.44492 204 182 121 1752393037
-0.221015 -0.552538 -3.45361 204 182 121 1752393037
-0.221574 -0.535471 -3.46234 204 182 121 1752393037
-0.222136 -0.518317 -3.47112 204 182 121 1752393037
-0.222701 -0.501077 -3.47995 204 182 121 1752393037
-0.223268 -0.483748 -3.48882 204 182 121 1752393037
-0.223839 -0.466331 -3.49773 204 182 121 1752393037
-0.224412 -0.448825 -3.50669 204 182 121 1752393037
-0.224989 -0.431228 -3.5157 204 182 121 1752393037
-0.225568 -0.413541 -3.52475 204 182 121 1752393037
-0.22615 -0.395763 -3.53385 204 182 121 1752393037
-0.226736 -0.377893 -3.543 204 182 121 1752393037
-0.227324 -0.35993 -3.55219 204 182 121 1752393037
-0.227916 -0.341873 -3.56143 204 182 121 1752393037
-0.22851 -0.323723 -3.57072 204 182 121 1752393037
-0.229108 -0.305477 -3.58006 204 182 121 1752393037
-0.229708 -0.287136 -3.58945 204 182 121 1752393037
-0.230312 -0.268698 -3.59889 204 182 121 1752393037
-0.23092 -0.250163 -3.60838 204 182 121 1752393037
-0.23153 -0.23153 -3.61791 204 182 121 1752393037
-0.232143 -0.212798 -3.6275 204 182 121 1752393037
-0.23276 -0.193967 -3.63714 204 182 121 1752393037
-0.23338 -0.175035 -3.64683 204 182 121 1752393037
-0.234004 -0.156003 -3.65657 204 182 121 1752393037
-0.234631 -0.136868 -3.66636 204 182 121 1752393037
-0.235261 -0.11763 -3.67621 204 182 121 1752393037
-0.235894 -0.098289 -3.68611 204 182 121 1752393037
-0.236531 -0.078844 -3.69606 204 182 121 1752393037
-0.237172 -0.059293 -3.70607 204 182 121 1752393037
-0.237815 -0.039636 -3.71613 204 182 121 1752393037
-0.238463 -0.019872 -3.72625 204 182 121 1752393037
-0.239114 0 -3.73642 204 182 121 1752393037
-0.239768 0.019981 -3.74665 204 182 121 1752393037
-0.240426 0.040071 -3.75693 204 182 121 1752393037
-0.241088 0.060272 -3.76727 204 182 121 1752393037
-0.241753 0.080584 -3.77766 204 182 121 1752393037
-0.242422 0.101009 -3.78812 204 182 121 1752393037
-0.243095 0.121548 -3.79863 204 182 121 1752393037
-0.243772 0.1422 -3.8092 204 182 121 1752393037
-0.244452 0.162968 -3.81983 204 182 121 1752393037
-0.245136 0.183852 -3.83052 204 182 121 1752393037
-0.245824 0.204853 -3.84127 204 182 121 1752393037
-0.246516 0.225973 -3.85208 204 182 121 1752393037
-0.247211 0.247211 -3.86295 204 182 121 1752393037
-0.247911 0.26857 -3.87388 204 182 121 1752393037
-0.248614 0.29005 -3.88488 204 182 121 1752393037
-0.249322 0.311653 -3.89594 204 182 121 1752393037
-0.250034 0.333378 -3.90706 204 182 121 1752393037
-0.250749 0.355228 -3.91824 204 182 121 1752393037
-0.251469 0.377204 -3.92949 204 182 121 1752393037
-0.252193 0.399306 -3.9408 204 182 121 1752393037
-0.252921 0.421536 -3.95218 204 182 121 1752393037
-0.253654 0.443894 -3.96362 204 182 121 1752393037
-0.25439 0.466382 -3.97513 204 182 121 1752393037
-0.255131 0.489002 -3.98671 204 182 121 1752393037
-0.255876 0.511753 -3.99836 204 182 121 1752393037
-0.256626 0.534638 -4.01007 204 182 121 1752393037
-0.25738 0.557657 -4.02185 204 182 121 1752393037
-0.147282 -0.981878 -2.45487 86 86 86 1752393037
-0.147638 -0.971132 -2.46081 86 86 86 1752393037
-0.147997 -0.960334 -2.46679 86 86 86 1752393037
-0.148357 -0.949483 -2.47279 86 86 86 1752393037
-0.148719 -0.93858 -2.47882 86 86 86 1752393037
-0.149082 -0.927623 -2.48488 86 86 86 1752393037
-0.149448 -0.916613 -2.49097 86 86 86 1752393037
-0.149815 -0.905548 -2.49709 86 86 86 1752393037
-0.150184 -0.894429 -2.50325 86 86 86 1752393037
-0.150555 -0.883255 -2.50943 86 86 86 1752393037
-0.150927 -0.872025 -2.51564 86 86 86 1752393037
-0.151302 -0.86074 -2.52188 86 86 86 1752393037
-0.151678 -0.849399 -2.52815 86 86 86 1752393037
-0.152057 -0.838001 -2.53446 86 86 86 1752393037
-0.152437 -0.826546 -2.5408 86 86 86 1752393037
-0.152819 -0.815034 -2.54716 86 86 86 1752393037
-0.153203 -0.803464 -2.55356 86 86 86 1752393037
-0.153589 -0.791836 -2.56 86 86 86 1752393037
-0.153977 -0.780149 -2.56646 86 86 86 1752393037
-0.154367 -0.768402 -2.57296 86 86 86 1752393037
-0.154758 -0.756596 -2.57949 86 86 86 1752393037
-0.155152 -0.74473 -2.58605 86 86 86 1752393037
-0.155548 -0.732804 -2.59265 86 86 86 1752393037
-0.155946 -0.720816 -2.59928 86 86 86 1752393037
-0.156346 -0.708767 -2.60595 86 86 86 1752393037
-0.156748 -0.696656 -2.61265 86 86 86 1752393037
-0.157152 -0.684483 -2.61938 86 86 86 1752393037
-0.157558 -0.672246 -2.62615 86 86 86 1752393037
-0.157966 -0.659947 -2.63295 86 86 86 1752393037
-0.158376 -0.647583 -2.63979 86 86 86 1752393037
-0.158789 -0.635155 -2.64667 86 86 86 1752393037
-0.159203 -0.622662 -2.65358 0 0 0 1752393037
-0.15962 -0.610103 -2.66052 0 0 0 1752393037
-0.160039 -0.597478 -2.6675 0 0 0 1752393037
-0.16046 -0.584787 -2.67452 0 0 0 1752393037
-0.203403 -0.723211 -3.39029 204 182 121 1752393037
-0.203908 -0.706881 -3.39871 204 182 121 1752393037
-0.204416 -0.690471 -3.40717 204 182 121 1752393037
-0.204926 -0.673978 -3.41567 204 182 121 1752393037
-0.205438 -0.657403 -3.42422 204 182 121 1752393037
-0.205954 -0.640744 -3.4328 204 182 121 1752393037
-0.206471 -0.624002 -3.44144 204 182 121 1752393037
-0.206992 -0.607176 -3.45011 204 182 121 1752393037
-0.207515 -0.590264 -3.45883 204 182 121 1752393037
-0.20804 -0.573267 -3.46759 204 182 121 1752393037
-0.208569 -0.556184 -3.47639 204 182 121 1752393037
-0.2091 -0.539013 -3.48525 204 182 121 1752393037
-0.209634 -0.521755 -3.49414 204 182 121 1752393037
-0.21017 -0.504408 -3.50308 204 182 121 1752393037
-0.210709 -0.486973 -3.51207 204 182 121 1752393037
-0.211251 -0.469447 -3.52111 204 182 121 1752393037
-0.211796 -0.451832 -3.53019 204 182 121 1752393037
-0.212344 -0.434125 -3.53932 204 182 121 1752393037
-0.212894 -0.416327 -3.54849 204 182 121 1752393037
-0.213448 -0.398436 -3.55771 204 182 121 1752393037
-0.214004 -0.380451 -3.56698 204 182 121 1752393037
-0.214563 -0.362373 -3.5763 204 182 121 1752393037
-0.215125 -0.3442 -3.58567 204 182 121 1752393037
-0.21569 -0.325931 -3.59509 204 182 121 1752393037
-0.216258 -0.307567 -3.60456 204 182 121 1752393037
-0.216829 -0.289105 -3.61407 204 182 121 1752393037
-0.217403 -0.270546 -3.62364 204 182 121 1752393037
-0.21798 -0.251888 -3.63326 204 182 121 1752393037
-0.21856 -0.233131 -3.64293 204 182 121 1752393037
-0.219143 -0.214273 -3.65265 204 182 121 1752393037
-0.21973 -0.195315 -3.66242 204 182 121 1752393037
-0.220319 -0.176255 -3.67225 204 182 121 1752393037
-0.220912 -0.157093 -3.68213 204 182 121 1752393037
-0.221508 -0.137827 -3.69206 204 182 121 1752393037
-0.222107 -0.118457 -3.70204 204 182 121 1752393037
-0.222709 -0.098982 -3.71208 204 182 121 1752393037
-0.223315 -0.079401 -3.72217 204 182 121 1752393037
-0.223923 -0.059713 -3.73232 204 182 121 1752393037
-0.224536 -0.039917 -3.74253 204 182 121 1752393037
-0.225151 -0.020013 -3.75279 204 182 121 1752393037
-0.22577 0 -3.76311 204 182 121 1752393037
-0.226393 0.020124 -3.77348 204 182 121 1752393037
-0.227018 0.040359 -3.78391 204 182 121 1752393037
-0.227648 0.060706 -3.7944 204 182 121 1752393037
-0.22828 0.081166 -3.80495 204 182 121 1752393037
-0.228917 0.101741 -3.81555 204 182 121 1752393037
-0.229557 0.12243 -3.82622 204 182 121 1752393037
-0.2302 0.143236 -3.83694 204 182 121 1752393037
-0.230847 0.164158 -3.84773 204 182 121 1752393037
-0.231498 0.185198 -3.85858 204 182 121 1752393037
-0.232152 0.206358 -3.86948 204 182 121 1752393037
-0.23281 0.227637 -3.88045 204 182 121 1752393037
-0.233472 0.249037 -3.89148 204 182 121 1752393037
-0.234138 0.270559 -3.90258 204 182 121 1752393037
-0.234807 0.292205 -3.91374 204 182 121 1752393037
-0.235481 0.313974 -3.92496 204 182 121 1752393037
-0.236158 0.335869 -3.93624 204 182 121 1752393037
-0.236839 0.35789 -3.9476 204 182 121 1752393037
-0.237524 0.380038 -3.95901 204 182 121 1752393037
-0.238213 0.402315 -3.9705 204 182 121 1752393037
-0.238906 0.424722 -3.98205 204 182 121 1752393037
-0.239603 0.447259 -3.99367 204 182 121 1752393037
-0.240304 0.469928 -4.00535 204 182 121 1752393037
-0.241009 0.49273 -4.01711 204 182 121 1752393037
-0.241719 0.515666 -4.02893 204 182 121 1752393037
-0.242432 0.538738 -4.04082 204 182 121 1752393037
-0.137888 -0.984912 -2.46246 86 86 86 1752393037
-0.138223 -0.974141 -2.46844 86 86 86 1752393037
-0.138559 -0.963316 -2.47445 86 86 86 1752393037
-0.138897 -0.952439 -2.48049 86 86 86 1752393037
-0.139237 -0.941509 -2.48656 86 86 86 1752393037
-0.139579 -0.930525 -2.49266 86 86 86 1752393037
-0.139922 -0.919487 -2.49879 86 86 86 1752393037
-0.140267 -0.908395 -2.50494 86 86 86 1752393037
-0.140613 -0.897248 -2.51113 86 86 86 1752393037
-0.140962 -0.886045 -2.51735 86 86 86 1752393037
-0.141312 -0.874787 -2.52361 86 86 86 1752393037
-0.141664 -0.863473 -2.52989 86 86 86 1752393037
-0.142017 -0.852103 -2.5362 86 86 86 1752393037
-0.142372 -0.840675 -2.54255 86 86 86 1752393037
-0.14273 -0.82919 -2.54892 86 86 86 1752393037
-0.143088 -0.817648 -2.55533 86 86 86 1752393037
-0.143449 -0.806047 -2.56177 86 86 86 1752393037
-0.143812 -0.794388 -2.56825 86 86 86 1752393037
-0.144176 -0.782669 -2.57475 86 86 86 1752393037
-0.144542 -0.770891 -2.58129 86 86 86 1752393037
-0.14491 -0.759054 -2.58787 86 86 86 1752393037
-0.14528 -0.747155 -2.59447 86 86 86 1752393037
-0.145652 -0.735196 -2.60111 86 86 86 1752393037
-0.146026 -0.723175 -2.60779 86 86 86 1752393037
-0.146401 -0.711093 -2.6145 86 86 86 1752393037
-0.146779 -0.698948 -2.62124 86 86 86 1752393037
-0.147159 -0.68674 -2.62802 86 86 86 1752393037
-0.14754 -0.674469 -2.63483 86 86 86 1752393037
-0.147924 -0.662134 -2.64168 86 86 86 1752393037
-0.148309 -0.649735 -2.64857 86 86 86 1752393037
-0.148697 -0.637272 -2.65549 86 86 86 1752393037
-0.149086 -0.624742 -2.66245 0 0 0 1752393037
-0.149478 -0.612147 -2.66944 0 0 0 1752393037
-0.149871 -0.599485 -2.67646 0 0 0 1752393037
-0.150267 -0.586756 -2.68353 0 0 0 1752393037
-0.191072 -0.727895 -3.41225 204 182 121 1752393037
-0.19155 -0.711471 -3.42078 204 182 121 1752393037
-0.19203 -0.694965 -3.42935 204 182 121 1752393037
-0.192512 -0.678376 -3.43796 204 182 121 1752393037
-0.192997 -0.661703 -3.44662 204 182 121 1752393037
-0.193484 -0.644947 -3.45532 204 182 121 1752393037
-0.193974 -0.628105 -3.46406 204 182 121 1752393037
-0.194466 -0.611178 -3.47285 204 182 121 1752393037
-0.19496 -0.594165 -3.48168 204 182 121 1752393037
-0.195457 -0.577065 -3.49056 204 182 121 1752393037
-0.195957 -0.559878 -3.49949 204 182 121 1752393037
-0.196459 -0.542602 -3.50846 204 182 121 1752393037
-0.196964 -0.525238 -3.51747 204 182 121 1752393037
-0.197472 -0.507784 -3.52653 204 182 121 1752393037
-0.197982 -0.490241 -3.53564 204 182 121 1752393037
-0.198494 -0.472606 -3.5448 204 182 121 1752393037
-0.19901 -0.45488 -3.554 204 182 121 1752393037
-0.199528 -0.437061 -3.56325 204 182 121 1752393037
-0.200049 -0.41915 -3.57255 204 182 121 1752393037
-0.200572 -0.401144 -3.5819 204 182 121 1752393037
-0.201098 -0.383044 -3.5913 204 182 121 1752393037
-0.201627 -0.364849 -3.60074 204 182 121 1752393037
-0.202159 -0.346558 -3.61024 204 182 121 1752393037
-0.202694 -0.328171 -3.61979 204 182 121 1752393037
-0.203231 -0.309686 -3.62939 204 182 121 1752393037
-0.203771 -0.291102 -3.63903 204 182 121 1752393037
-0.204315 -0.272419 -3.64874 204 182 121 1752393037
-0.204861 -0.253637 -3.65849 204 182 121 1752393037
-0.20541 -0.234754 -3.66829 204 182 121 1752393037
-0.205962 -0.215769 -3.67815 204 182 121 1752393037
-0.206517 -0.196682 -3.68806 204 182 121 1752393037
-0.207074 -0.177492 -3.69802 204 182 121 1752393037
-0.207635 -0.158198 -3.70804 204 182 121 1752393037
-0.208199 -0.1388 -3.71811 204 182 121 1752393037
-0.208766 -0.119295 -3.72824 204 182 121 1752393037
-0.209337 -0.099684 -3.73842 204 182 121 1752393037
-0.20991 -0.079966 -3.74866 204 182 121 1752393037
-0.210486 -0.060139 -3.75895 204 182 121 1752393037
-0.211066 -0.040203 -3.7693 204 182 121 1752393037
-0.211649 -0.020157 -3.77971 204 182 121 1752393037
-0.212235 0 -3.79018 204 182 121 1752393037
-0.212824 0.020269 -3.8007 204 182 121 1752393037
-0.213417 0.040651 -3.81128 204 182 121 1752393037
-0.214012 0.061146 -3.82192 204 182 121 1752393037
-0.214612 0.081757 -3.83262 204 182 121 1752393037
-0.215214 0.102483 -3.84339 204 182 121 1752393037
-0.21582 0.123326 -3.85421 204 182 121 1752393037
-0.21643 0.144286 -3.86509 204 182 121 1752393037
-0.217043 0.165366 -3.87603 204 182 121 1752393037
-0.217659 0.186565 -3.88704 204 182 121 1752393037
-0.218279 0.207884 -3.89811 204 182 121 1752393037
-0.218902 0.229326 -3.90924 204 182 121 1752393037
-0.219529 0.25089 -3.92044 204 182 121 1752393037
-0.22016 0.272578 -3.9317 204 182 121 1752393037
-0.220794 0.294392 -3.94303 204 182 121 1752393037
-0.221432 0.316331 -3.95442 204 182 121 1752393037
-0.222073 0.338397 -3.96587 204 182 121 1752393037
-0.222718 0.360592 -3.9774 204 182 121 1752393037
-0.223367 0.382916 -3.98899 204 182 121 1752393037
-0.22402 0.40537 -4.00065 204 182 121 1752393037
-0.224677 0.427956 -4.01237 204 182 121 1752393037
-0.225337 0.450675 -4.02417 204 182 121 1752393037
-0.226002 0.473528 -4.03604 204 182 121 1752393037
-0.22667 0.496516 -4.04797 204 182 121 1752393037
-0.227342 0.51964 -4.05998 204 182 121 1752393037
-0.128436 -0.987966 -2.47009 86 86 86 1752393037
-0.128748 -0.977168 -2.47611 86 86 86 1752393037
-0.129063 -0.966317 -2.48216 86 86 86 1752393037
-0.129379 -0.955413 -2.48823 86 86 86 1752393037
-0.129696 -0.944456 -2.49434 86 86 86 1752393037
-0.130016 -0.933445 -2.50048 86 86 86 1752393037
-0.130336 -0.92238 -2.50664 86 86 86 1752393037
-0.130659 -0.911259 -2.51284 86 86 86 1752393037
-0.130982 -0.900084 -2.51907 86 86 86 1752393037
-0.131308 -0.888853 -2.52533 86 86 86 1752393037
-0.131635 -0.877567 -2.53162 86 86 86 1752393037
-0.131964 -0.866223 -2.53795 86 86 86 1752393037
-0.132294 -0.854823 -2.5443 86 86 86 1752393037
-0.132626 -0.843366 -2.55068 86 86 86 1752393037
-0.13296 -0.831851 -2.5571 86 86 86 1752393037
-0.133295 -0.820278 -2.56355 86 86 86 1752393037
-0.133632 -0.808647 -2.57004 86 86 86 1752393037
-0.133971 -0.796957 -2.57655 86 86 86 1752393037
-0.134312 -0.785207 -2.5831 86 86 86 1752393037
-0.134654 -0.773397 -2.58968 86 86 86 1752393037
-0.134998 -0.761527 -2.5963 86 86 86 1752393037
-0.135344 -0.749596 -2.60295 86 86 86 1752393037
-0.135691 -0.737604 -2.60963 86 86 86 1752393037
-0.136041 -0.72555 -2.61635 86 86 86 1752393037
-0.136392 -0.713434 -2.62311 86 86 86 1752393037
-0.136745 -0.701255 -2.62989 86 86 86 1752393037
-0.137099 -0.689013 -2.63672 86 86 86 1752393037
-0.137456 -0.676707 -2.64357 86 86 86 1752393037
-0.137815 -0.664337 -2.65047 86 86 86 1752393037
-0.138175 -0.651902 -2.6574 86 86 86 1752393037
-0.138537 -0.639403 -2.66437 86 86 86 1752393037
-0.138901 -0.626837 -2.67137 0 0 0 1752393037
-0.139267 -0.614204 -2.67841 0 0 0 1752393037
-0.139635 -0.601505 -2.68548 0 0 0 1752393037
-0.140005 -0.588739 -2.6926 0 0 0 1752393037
-0.178581 -0.73264 -3.43449 204 182 121 1752393037
-0.17903 -0.71612 -3.44313 204 182 121 1752393037
-0.179482 -0.699518 -3.45181 204 182 121 1752393037
-0.179935 -0.682831 -3.46054 204 182 121 1752393037
-0.180391 -0.66606 -3.46931 204 182 121 1752393037
-0.18085 -0.649204 -3.47813 204 182 121 1752393037
-0.18131 -0.632262 -3.48699 204 182 121 1752393037
-0.181773 -0.615233 -3.49589 204 182 121 1752393037
-0.182239 -0.598117 -3.50484 204 182 121 1752393037
-0.182707 -0.580914 -3.51384 204 182 121 1752393037
-0.183177 -0.563621 -3.52289 204 182 121 1752393037
-0.18365 -0.54624 -3.53197 204 182 121 1752393037
-0.184125 -0.528768 -3.54111 204 182 121 1752393037
-0.184602 -0.511206 -3.5503 204 182 121 1752393037
-0.185082 -0.493553 -3.55953 204 182 121 1752393037
-0.185565 -0.475807 -3.56881 204 182 121 1752393037
-0.18605 -0.457969 -3.57814 204 182 121 1752393037
-0.186537 -0.440037 -3.58752 204 182 121 1752393037
-0.187028 -0.422011 -3.59694 204 182 121 1752393037
-0.18752 -0.40389 -3.60642 204 182 121 1752393037
-0.188016 -0.385673 -3.61595 204 182 121 1752393037
-0.188514 -0.36736 -3.62552 204 182 121 1752393037
-0.189014 -0.34895 -3.63515 204 182 121 1752393037
-0.189518 -0.330441 -3.64483 204 182 121 1752393037
-0.190024 -0.311834 -3.65456 204 182 121 1752393037
-0.190532 -0.293127 -3.66434 204 182 121 1752393037
-0.191044 -0.274319 -3.67418 204 182 121 1752393037
-0.191558 -0.255411 -3.68407 204 182 121 1752393037
-0.192075 -0.2364 -3.69401 204 182 121 1752393037
-0.192595 -0.217286 -3.70401 204 182 121 1752393037
-0.193117 -0.198069 -3.71406 204 182 121 1752393037
-0.193643 -0.178747 -3.72416 204 182 121 1752393037
-0.194171 -0.15932 -3.73432 204 182 121 1752393037
-0.194702 -0.139786 -3.74454 204 182 121 1752393037
-0.195236 -0.120145 -3.75481 204 182 121 1752393037
-0.195773 -0.100396 -3.76514 204 182 121 1752393037
-0.196313 -0.080539 -3.77552 204 182 121 1752393037
-0.196856 -0.060571 -3.78596 204 182 121 1752393037
-0.197402 -0.040493 -3.79646 204 182 121 1752393037
-0.197951 -0.020303 -3.80702 204 182 121 1752393037
-0.198503 0 -3.81764 204 182 121 1752393037
-0.199058 0.020416 -3.82832 204 182 121 1752393037
-0.199617 0.040947 -3.83905 204 182 121 1752393037
-0.200178 0.061593 -3.84985 204 182 121 1752393037
-0.200743 0.082356 -3.86071 204 182 121 1752393037
-0.20131 0.103236 -3.87163 204 182 121 1752393037
-0.201881 0.124235 -3.88261 204 182 121 1752393037
-0.202456 0.145353 -3.89365 204 182 121 1752393037
-0.203033 0.166591 -3.90476 204 182 121 1752393037
-0.203614 0.187951 -3.91593 204 182 121 1752393037
-0.204198 0.209434 -3.92717 204 182 121 1752393037
-0.204786 0.23104 -3.93847 204 182 121 1752393037
-0.205377 0.252771 -3.94983 204 182 121 1752393037
-0.205971 0.274628 -3.96126 204 182 121 1752393037
-0.206569 0.296611 -3.97276 204 182 121 1752393037
-0.20717 0.318723 -3.98432 204 182 121 1752393037
-0.207775 0.340964 -3.99595 204 182 121 1752393037
-0.208383 0.363334 -4.00765 204 182 121 1752393037
-0.208995 0.385837 -4.01942 204 182 121 1752393037
-0.20961 0.408472 -4.03126 204 182 121 1752393037
-0.21023 0.43124 -4.04316 204 182 121 1752393037
-0.210852 0.454144 -4.05514 204 182 121 1752393037
-0.211479 0.477183 -4.06719 204 182 121 1752393037
-0.212109 0.50036 -4.07931 204 182 121 1752393037
-0.212743 0.523675 -4.09151 204 182 121 1752393037
-0.118925 -0.991038 -2.47777 86 86 86 1752393037
-0.119215 -0.980214 -2.48383 86 86 86 1752393037
-0.119507 -0.969337 -2.48991 86 86 86 1752393037
-0.119801 -0.958406 -2.49603 86 86 86 1752393037
-0.120096 -0.947422 -2.50217 86 86 86 1752393037
-0.120392 -0.936384 -2.50835 86 86 86 1752393037
-0.12069 -0.925291 -2.51456 86 86 86 1752393037
-0.120989 -0.914142 -2.52079 86 86 86 1752393037
-0.12129 -0.902939 -2.52706 86 86 86 1752393037
-0.121593 -0.891679 -2.53336 86 86 86 1752393037
-0.121897 -0.880364 -2.53969 86 86 86 1752393037
-0.122202 -0.868991 -2.54606 86 86 86 1752393037
-0.122509 -0.857562 -2.55245 86 86 86 1752393037
-0.122817 -0.846075 -2.55888 86 86 86 1752393037
-0.123127 -0.83453 -2.56534 86 86 86 1752393037
-0.123439 -0.822926 -2.57183 86 86 86 1752393037
-0.123752 -0.811264 -2.57835 86 86 86 1752393037
-0.124067 -0.799542 -2.58491 86 86 86 1752393037
-0.124383 -0.78776 -2.5915 86 86 86 1752393037
-0.124701 -0.775919 -2.59813 86 86 86 1752393037
-0.125021 -0.764016 -2.60479 86 86 86 1752393037
-0.125342 -0.752053 -2.61148 86 86 86 1752393037
-0.125665 -0.740027 -2.61821 86 86 86 1752393037
-0.12599 -0.72794 -2.62497 86 86 86 1752393037
-0.126316 -0.71579 -2.63177 86 86 86 1752393037
-0.126644 -0.703577 -2.6386 86 86 86 1752393037
-0.126973 -0.6913 -2.64547 86 86 86 1752393037
-0.127305 -0.678959 -2.65237 86 86 86 1752393037
-0.127638 -0.666554 -2.65932 86 86 86 1752393037
-0.127973 -0.654084 -2.66629 86 86 86 1752393037
-0.12831 -0.641548 -2.67331 86 86 86 1752393037
-0.128648 -0.628945 -2.68036 0 0 0 1752393037
-0.128988 -0.616276 -2.68744 0 0 0 1752393037
-0.12933 -0.603539 -2.69456 0 0 0 1752393037
-0.129673 -0.590735 -2.70172 0 0 0 1752393037
-0.165926 -0.737447 -3.45703 204 182 121 1752393037
-0.166346 -0.720831 -3.46578 204 182 121 1752393037
-0.166768 -0.704131 -3.47458 204 182 121 1752393037
-0.167192 -0.687346 -3.48342 204 182 121 1752393037
-0.167619 -0.670475 -3.49231 204 182 121 1752393037
-0.168048 -0.653518 -3.50124 204 182 121 1752393037
-0.168478 -0.636474 -3.51022 204 182 121 1752393037
-0.168912 -0.619343 -3.51924 204 182 121 1752393037
-0.169347 -0.602123 -3.52832 204 182 121 1752393037
-0.169785 -0.584814 -3.53743 204 182 121 1752393037
-0.170225 -0.567415 -3.5466 204 182 121 1752393037
-0.170667 -0.549926 -3.55581 204 182 121 1752393037
-0.171111 -0.532346 -3.56507 204 182 121 1752393037
-0.171558 -0.514674 -3.57438 204 182 121 1752393037
-0.172007 -0.49691 -3.58374 204 182 121 1752393037
-0.172459 -0.479052 -3.59315 204 182 121 1752393037
-0.172913 -0.4611 -3.6026 204 182 121 1752393037
-0.173369 -0.443054 -3.61211 204 182 121 1752393037
-0.173828 -0.424912 -3.62167 204 182 121 1752393037
-0.174289 -0.406674 -3.63127 204 182 121 1752393037
-0.174752 -0.388338 -3.64093 204 182 121 1752393037
-0.175218 -0.369906 -3.65064 204 182 121 1752393037
-0.175687 -0.351374 -3.66041 204 182 121 1752393037
-0.176158 -0.332743 -3.67022 204 182 121 1752393037
-0.176632 -0.314012 -3.68009 204 182 121 1752393037
-0.177108 -0.29518 -3.69001 204 182 121 1752393037
-0.177586 -0.276246 -3.69998 204 182 121 1752393037
-0.178068 -0.257209 -3.71001 204 182 121 1752393037
-0.178552 -0.238069 -3.72009 204 182 121 1752393037
-0.179038 -0.218825 -3.73023 204 182 121 1752393037
-0.179528 -0.199475 -3.74042 204 182 121 1752393037
-0.180019 -0.180019 -3.75067 204 182 121 1752393037
-0.180514 -0.160457 -3.76098 204 182 121 1752393037
-0.181011 -0.140787 -3.77134 204 182 121 1752393037
-0.181511 -0.121008 -3.78176 204 182 121 1752393037
-0.182014 -0.101119 -3.79224 204 182 121 1752393037
-0.18252 -0.08112 -3.80277 204 182 121 1752393037
-0.183028 -0.061009 -3.81336 204 182 121 1752393037
-0.18354 -0.040787 -3.82402 204 182 121 1752393037
-0.184054 -0.02045 -3.83473 204 182 121 1752393037
-0.184571 0 -3.8455 204 182 121 1752393037
-0.185091 0.020566 -3.85634 204 182 121 1752393037
-0.185614 0.041248 -3.86723 204 182 121 1752393037
-0.18614 0.062047 -3.87819 204 182 121 1752393037
-0.186669 0.082964 -3.88921 204 182 121 1752393037
-0.187201 0.104 -3.90029 204 182 121 1752393037
-0.187735 0.125157 -3.91143 204 182 121 1752393037
-0.188273 0.146435 -3.92264 204 182 121 1752393037
-0.188815 0.167835 -3.93392 204 182 121 1752393037
-0.189359 0.189359 -3.94526 204 182 121 1752393037
-0.189906 0.211007 -3.95666 204 182 121 1752393037
-0.190457 0.23278 -3.96813 204 182 121 1752393037
-0.19101 0.25468 -3.97967 204 182 121 1752393037
-0.191567 0.276708 -3.99127 204 182 121 1752393037
-0.192127 0.298865 -4.00294 204 182 121 1752393037
-0.192691 0.321152 -4.01468 204 182 121 1752393037
-0.193258 0.343569 -4.02649 204 182 121 1752393037
-0.193828 0.366119 -4.03837 204 182 121 1752393037
-0.194401 0.388803 -4.05032 204 182 121 1752393037
-0.194978 0.411621 -4.06234 204 182 121 1752393037
-0.195559 0.434575 -4.07443 204 182 121 1752393037
-0.196143 0.457666 -4.0866 204 182 121 1752393037
-0.19673 0.480895 -4.09883 204 182 121 1752393037
-0.197321 0.504264 -4.11114 204 182 121 1752393037
-0.109354 -0.994129 -2.4855 86 86 86 1752393037
-0.109622 -0.983279 -2.49159 86 86 86 1752393037
-0.109892 -0.972375 -2.49772 86 86 86 1752393037
-0.110162 -0.961418 -2.50387 86 86 86 1752393037
-0.110435 -0.950407 -2.51006 86 86 86 1752393037
-0.110708 -0.939341 -2.51627 86 86 86 1752393037
-0.110983 -0.92822 -2.52252 86 86 86 1752393037
-0.111259 -0.917044 -2.52879 86 86 86 1752393037
-0.111537 -0.905812 -2.5351 86 86 86 1752393037
-0.111815 -0.894524 -2.54144 86 86 86 1752393037
-0.112096 -0.883179 -2.54781 86 86 86 1752393037
-0.112377 -0.871777 -2.55422 86 86 86 1752393037
-0.112661 -0.860318 -2.56065 86 86 86 1752393037
-0.112945 -0.848801 -2.56712 86 86 86 1752393037
-0.113231 -0.837225 -2.57362 86 86 86 1752393037
-0.113519 -0.825591 -2.58015 86 86 86 1752393037
-0.113808 -0.813897 -2.58672 86 86 86 1752393037
-0.114098 -0.802144 -2.59332 86 86 86 1752393037
-0.11439 -0.790331 -2.59996 86 86 86 1752393037
-0.114683 -0.778457 -2.60663 86 86 86 1752393037
-0.114978 -0.766522 -2.61333 86 86 86 1752393037
-0.115275 -0.754526 -2.62007 86 86 86 1752393037
-0.115573 -0.742467 -2.62684 86 86 86 1752393037
-0.115872 -0.730346 -2.63365 86 86 86 1752393037
-0.116173 -0.718162 -2.64049 86 86 86 1752393037
-0.116476 -0.705915 -2.64737 86 86 86 1752393037
-0.11678 -0.693603 -2.65428 86 86 86 1752393037
-0.117086 -0.681227 -2.66123 86 86 86 1752393037
-0.117393 -0.668786 -2.66822 86 86 86 1752393037
-0.117702 -0.65628 -2.67524 86 86 86 1752393037
-0.118013 -0.643707 -2.68231 86 86 86 1752393037
-0.118325 -0.631068 -2.6894 0 0 0 1752393037
-0.118639 -0.618361 -2.69654 0 0 0 1752393037
-0.118955 -0.605587 -2.70371 0 0 0 1752393037
-0.152715 -0.758946 -3.47104 204 182 121 1752393037
-0.153103 -0.742317 -3.47986 204 182 121 1752393037
-0.153493 -0.725604 -3.48873 204 182 121 1752393037
-0.153885 -0.708805 -3.49764 204 182 121 1752393037
-0.15428 -0.691921 -3.5066 204 182 121 1752393037
-0.154676 -0.674949 -3.51561 204 182 121 1752393037
-0.155074 -0.65789 -3.52466 204 182 121 1752393037
-0.155474 -0.640743 -3.53376 204 182 121 1752393037
-0.155877 -0.623507 -3.54291 204 182 121 1752393037
-0.156281 -0.606182 -3.5521 204 182 121 1752393037
-0.156688 -0.588767 -3.56134 204 182 121 1752393037
-0.157097 -0.571261 -3.57063 204 182 121 1752393037
-0.157508 -0.553663 -3.57997 204 182 121 1752393037
-0.157921 -0.535973 -3.58936 204 182 121 1752393037
-0.158336 -0.51819 -3.5988 204 182 121 1752393037
-0.158753 -0.500313 -3.60828 204 182 121 1752393037
-0.159173 -0.482341 -3.61782 204 182 121 1752393037
-0.159595 -0.464275 -3.62741 204 182 121 1752393037
-0.160019 -0.446112 -3.63704 204 182 121 1752393037
-0.160445 -0.427853 -3.64673 204 182 121 1752393037
-0.160873 -0.409496 -3.65648 204 182 121 1752393037
-0.161304 -0.391041 -3.66627 204 182 121 1752393037
-0.161738 -0.372486 -3.67612 204 182 121 1752393037
-0.162173 -0.353832 -3.68601 204 182 121 1752393037
-0.162611 -0.335077 -3.69597 204 182 121 1752393037
-0.163051 -0.31622 -3.70597 204 182 121 1752393037
-0.163494 -0.297262 -3.71603 204 182 121 1752393037
-0.163939 -0.278199 -3.72615 204 182 121 1752393037
-0.164386 -0.259033 -3.73632 204 182 121 1752393037
-0.164836 -0.239762 -3.74655 204 182 121 1752393037
-0.165289 -0.220385 -3.75683 204 182 121 1752393037
-0.165744 -0.200901 -3.76717 204 182 121 1752393037
-0.166201 -0.18131 -3.77756 204 182 121 1752393037
-0.166661 -0.161611 -3.78802 204 182 121 1752393037
-0.167123 -0.141802 -3.79853 204 182 121 1752393037
-0.167588 -0.121882 -3.8091 204 182 121 1752393037
-0.168056 -0.101852 -3.81973 204 182 121 1752393037
-0.168526 -0.08171 -3.83042 204 182 121 1752393037
-0.168999 -0.061454 -3.84117 204 182 121 1752393037
-0.169475 -0.041085 -3.85198 204 182 121 1752393037
-0.169953 -0.0206 -3.86285 204 182 121 1752393037
-0.170434 0 -3.87378 204 182 121 1752393037
-0.170918 0.020717 -3.88477 204 182 121 1752393037
-0.171404 0.041553 -3.89583 204 182 121 1752393037
-0.171893 0.062507 -3.90695 204 182 121 1752393037
-0.172385 0.083581 -3.91813 204 182 121 1752393037
-0.17288 0.104776 -3.92938 204 182 121 1752393037
-0.173378 0.126093 -3.94069 204 182 121 1752393037
-0.173879 0.147533 -3.95207 204 182 121 1752393037
-0.174382 0.169098 -3.96351 204 182 121 1752393037
-0.174888 0.190787 -3.97502 204 182 121 1752393037
-0.175398 0.212603 -3.9866 204 182 121 1752393037
-0.17591 0.234547 -3.99824 204 182 121 1752393037
-0.176425 0.256619 -4.00995 204 182 121 1752393037
-0.176944 0.278821 -4.02174 204 182 121 1752393037
-0.177465 0.301153 -4.03359 204 182 121 1752393037
-0.17799 0.323618 -4.04551 204 182 121 1752393037
-0.178517 0.346215 -4.0575 204 182 121 1752393037
-0.179048 0.368947 -4.06956 204 182 121 1752393037
-0.179582 0.391815 -4.0817 204 182 121 1752393037
-0.180119 0.414819 -4.0939 204 182 121 1752393037
-0.180659 0.437962 -4.10618 204 182 121 1752393037
-0.181203 0.461244 -4.11854 204 182 121 1752393037
-0.18175 0.484666 -4.13097 204 182 121 1752393037
-0.099724 -0.99724 -2.49328 86 86 86 1752393037
-0.099969 -0.986363 -2.49941 86 86 86 1752393037
-0.100216 -0.975433 -2.50557 86 86 86 1752393037
-0.100463 -0.964449 -2.51177 86 86 86 1752393037
-0.100712 -0.95341 -2.51799 86 86 86 1752393037
-0.100962 -0.942316 -2.52424 86 86 86 1752393037
-0.101214 -0.931168 -2.53053 86 86 86 1752393037
-0.101467 -0.919963 -2.53684 86 86 86 1752393037
-0.10172 -0.908703 -2.54319 86 86 86 1752393037
-0.101976 -0.897386 -2.54957 86 86 86 1752393037
-0.102232 -0.886012 -2.55598 86 86 86 1752393037
-0.10249 -0.87458 -2.56243 86 86 86 1752393037
-0.102749 -0.863091 -2.56891 86 86 86 1752393037
-0.103009 -0.851544 -2.57542 86 86 86 1752393037
-0.103271 -0.839938 -2.58196 86 86 86 1752393037
-0.103534 -0.828273 -2.58854 86 86 86 1752393037
-0.103798 -0.816548 -2.59515 86 86 86 1752393037
-0.104064 -0.804763 -2.60179 86 86 86 1752393037
-0.104331 -0.792918 -2.60847 86 86 86 1752393037
-0.1046 -0.781012 -2.61518 86 86 86 1752393037
-0.10487 -0.769044 -2.62193 86 86 86 1752393037
-0.105141 -0.757015 -2.62871 86 86 86 1752393037
-0.105414 -0.744923 -2.63553 86 86 86 1752393037
-0.105688 -0.732768 -2.64238 86 86 86 1752393037
-0.105963 -0.72055 -2.64927 86 86 86 1752393037
-0.10624 -0.708268 -2.65619 86 86 86 1752393037
-0.106519 -0.695921 -2.66315 86 86 86 1752393037
-0.106798 -0.68351 -2.67015 86 86 86 1752393037
-0.10708 -0.671033 -2.67719 86 86 86 1752393037
-0.107363 -0.658491 -2.68426 86 86 86 1752393037
-0.107647 -0.645882 -2.69137 86 86 86 1752393037
-0.107933 -0.633205 -2.69851 0 0 0 1752393037
-0.10822 -0.620461 -2.70569 0 0 0 1752393037
-0.108509 -0.607649 -2.71291 0 0 0 1752393037
-0.139752 -0.763979 -3.49406 204 182 121 1752393037
-0.14011 -0.747253 -3.503 204 182 121 1752393037
-0.140469 -0.730441 -3.51199 204 182 121 1752393037
-0.140831 -0.713542 -3.52102 204 182 121 1752393037
-0.141194 -0.696557 -3.5301 204 182 121 1752393037
-0.141559 -0.679483 -3.53923 204 182 121 1752393037
-0.141926 -0.662321 -3.5484 204 182 121 1752393037
-0.142295 -0.64507 -3.55762 204 182 121 1752393037
-0.142666 -0.627729 -3.56689 204 182 121 1752393037
-0.143038 -0.610297 -3.57621 204 182 121 1752393037
-0.143413 -0.592774 -3.58558 204 182 121 1752393037
-0.14379 -0.575159 -3.595 204 182 121 1752393037
-0.144168 -0.557451 -3.60446 204 182 121 1752393037
-0.144549 -0.539649 -3.61398 204 182 121 1752393037
-0.144932 -0.521754 -3.62355 204 182 121 1752393037
-0.145316 -0.503763 -3.63316 204 182 121 1752393037
-0.145703 -0.485676 -3.64283 204 182 121 1752393037
-0.146092 -0.467494 -3.65255 204 182 121 1752393037
-0.146483 -0.449213 -3.66233 204 182 121 1752393037
-0.146876 -0.430835 -3.67215 204 182 121 1752393037
-0.147271 -0.412358 -3.68203 204 182 121 1752393037
-0.147668 -0.393781 -3.69196 204 182 121 1752393037
-0.148067 -0.375104 -3.70195 204 182 121 1752393037
-0.148469 -0.356325 -3.71198 204 182 121 1752393037
-0.148872 -0.337444 -3.72208 204 182 121 1752393037
-0.149278 -0.31846 -3.73222 204 182 121 1752393037
-0.149686 -0.299373 -3.74243 204 182 121 1752393037
-0.150097 -0.280181 -3.75269 204 182 121 1752393037
-0.150509 -0.260883 -3.76301 204 182 121 1752393037
-0.150924 -0.241479 -3.77338 204 182 121 1752393037
-0.151342 -0.221968 -3.78381 204 182 121 1752393037
-0.151761 -0.202348 -3.7943 204 182 121 1752393037
-0.152183 -0.182619 -3.80484 204 182 121 1752393037
-0.152607 -0.162781 -3.81545 204 182 121 1752393037
-0.153034 -0.142831 -3.82611 204 182 121 1752393037
-0.153463 -0.12277 -3.83684 204 182 121 1752393037
-0.153894 -0.102596 -3.84762 204 182 121 1752393037
-0.154328 -0.082308 -3.85847 204 182 121 1752393037
-0.154764 -0.061906 -3.86938 204 182 121 1752393037
-0.155203 -0.041387 -3.88035 204 182 121 1752393037
-0.155644 -0.020753 -3.89138 204 182 121 1752393037
-0.156088 0 -3.90247 204 182 121 1752393037
-0.156534 0.020871 -3.91363 204 182 121 1752393037
-0.156983 0.041862 -3.92485 204 182 121 1752393037
-0.157434 0.062974 -3.93614 204 182 121 1752393037
-0.157888 0.084207 -3.94749 204 182 121 1752393037
-0.158345 0.105563 -3.9589 204 182 121 1752393037
-0.158804 0.127043 -3.97039 204 182 121 1752393037
-0.159266 0.148648 -3.98194 204 182 121 1752393037
-0.159731 0.170379 -3.99355 204 182 121 1752393037
-0.160198 0.192238 -4.00524 204 182 121 1752393037
-0.160668 0.214224 -4.01699 204 182 121 1752393037
-0.161141 0.23634 -4.02881 204 182 121 1752393037
-0.161617 0.258587 -4.04071 204 182 121 1752393037
-0.162095 0.280965 -4.05267 204 182 121 1752393037
-0.162577 0.303476 -4.0647 204 182 121 1752393037
-0.163061 0.326122 -4.07681 204 182 121 1752393037
-0.163548 0.348902 -4.08899 204 182 121 1752393037
-0.164038 0.371819 -4.10124 204 182 121 1752393037
-0.164531 0.394874 -4.11357 204 182 121 1752393037
-0.165027 0.418068 -4.12597 204 182 121 1752393037
-0.165526 0.441402 -4.13844 204 182 121 1752393037
-0.166028 0.464878 -4.15099 204 182 121 1752393037
-0.090033 -1.00037 -2.5011 86 86 86 1752393037
-0.090255 -0.989467 -2.50727 86 86 86 1752393037
-0.090479 -0.97851 -2.51347 86 86 86 1752393037
-0.090703 -0.967499 -2.51971 86 86 86 1752393037
-0.090928 -0.956432 -2.52597 86 86 86 1752393037
-0.091155 -0.945311 -2.53226 86 86 86 1752393037
-0.091383 -0.934134 -2.53859 86 86 86 1752393037
-0.091612 -0.922902 -2.54495 86 86 86 1752393037
-0.091842 -0.911612 -2.55134 86 86 86 1752393037
-0.092073 -0.900266 -2.55776 86 86 86 1752393037
-0.092305 -0.888863 -2.56421 86 86 86 1752393037
-0.092538 -0.877402 -2.5707 86 86 86 1752393037
-0.092773 -0.865883 -2.57722 86 86 86 1752393037
-0.093009 -0.854305 -2.58377 86 86 86 1752393037
-0.093246 -0.842669 -2.59035 86 86 86 1752393037
-0.093484 -0.830972 -2.59697 86 86 86 1752393037
-0.093724 -0.819216 -2.60363 86 86 86 1752393037
-0.093965 -0.8074 -2.61032 86 86 86 1752393037
-0.094207 -0.795522 -2.61704 86 86 86 1752393037
-0.09445 -0.783584 -2.62379 86 86 86 1752393037
-0.094694 -0.771583 -2.63058 86 86 86 1752393037
-0.09494 -0.75952 -2.63741 86 86 86 1752393037
-0.095187 -0.747395 -2.64427 86 86 86 1752393037
-0.095435 -0.735206 -2.65117 86 86 86 1752393037
-0.095685 -0.722953 -2.65811 86 86 86 1752393037
-0.095936 -0.710637 -2.66508 86 86 86 1752393037
-0.096188 -0.698255 -2.67209 86 86 86 1752393037
-0.096442 -0.685808 -2.67913 86 86 86 1752393037
-0.096697 -0.673295 -2.68621 86 86 86 1752393037
-0.096953 -0.660716 -2.69333 86 86 86 1752393037
-0.097211 -0.648071 -2.70049 0 0 0 1752393037
-0.097469 -0.635357 -2.70768 0 0 0 1752393037
-0.09773 -0.622575 -2.71491 0 0 0 1752393037
-0.097991 -0.609724 -2.72218 0 0 0 1752393037
-0.126617 -0.769079 -3.51738 204 182 121 1752393037
