ply
format ascii 1.0
comment PCL generated
obj_info is_cyberware_data 0
obj_info is_mesh 0
obj_info is_warped 0
obj_info is_interlaced 0
obj_info num_cols 19600
obj_info num_rows 1
obj_info echo_rgb_offset_x 0
obj_info echo_rgb_offset_y 0
obj_info echo_rgb_offset_z 0
obj_info echo_rgb_frontfocus 0.0
obj_info echo_rgb_backfocus 0.0
obj_info echo_rgb_pixelsize 0.0
obj_info echo_rgb_centerpixel 0
obj_info echo_frames 1
obj_info echo_lgincr 0.0
element vertex 939
property float x
property float y
property float z
property uchar red
property uchar green
property uchar blue
property uint label
end_header
-0.708679 -0.722574 -3.47416 79 115 115 1752393037
-0.710632 -0.705988 -3.48374 79 115 115 1752393037
-0.712597 -0.689309 -3.49337 79 115 115 1752393037
-0.714572 -0.672538 -3.50305 79 115 115 1752393037
-0.716558 -0.655674 -3.51279 79 115 115 1752393037
-0.718555 -0.638716 -3.52258 79 115 115 1752393037
-0.720563 -0.621663 -3.53242 79 115 115 1752393037
-0.722583 -0.604514 -3.54233 79 115 115 1752393037
-0.724614 -0.587269 -3.55228 79 115 115 1752393037
-0.726656 -0.569926 -3.56229 79 115 115 1752393037
-0.72871 -0.552486 -3.57236 79 115 115 1752393037
-0.730776 -0.534947 -3.58249 79 115 115 1752393037
-0.732853 -0.517308 -3.59267 79 115 115 1752393037
-0.734942 -0.499569 -3.60292 79 115 115 1752393037
-0.737044 -0.481728 -3.61322 79 115 115 1752393037
-0.739157 -0.463785 -3.62358 79 115 115 1752393037
-0.741282 -0.445738 -3.634 79 115 115 1752393037
-0.74342 -0.427588 -3.64447 79 115 115 1752393037
-0.74557 -0.409332 -3.65501 79 115 115 1752393037
-0.747732 -0.390971 -3.66562 79 115 115 1752393037
-0.749907 -0.372503 -3.67628 79 115 115 1752393037
-0.752095 -0.353927 -3.687 79 115 115 1752393037
-0.754295 -0.335242 -3.69779 79 115 115 1752393037
-0.756509 -0.316448 -3.70864 79 115 115 1752393037
-0.758735 -0.297543 -3.71956 79 115 115 1752393037
-0.760975 -0.278527 -3.73054 79 115 115 1752393037
-0.763228 -0.259398 -3.74158 79 115 115 1752393037
-0.765494 -0.240155 -3.75269 79 115 115 1752393037
-0.767774 -0.220798 -3.76386 79 115 115 1752393037
-0.770067 -0.201325 -3.77511 79 115 115 1752393037
-0.772374 -0.181735 -3.78642 79 115 115 1752393037
-0.774695 -0.162028 -3.7978 79 115 115 1752393037
-0.77703 -0.142202 -3.80924 79 115 115 1752393037
-0.779379 -0.122256 -3.82076 79 115 115 1752393037
-0.781742 -0.102189 -3.83235 79 115 115 1752393037
-0.78412 -0.081999 -3.844 79 115 115 1752393037
-0.786512 -0.061687 -3.85573 79 115 115 1752393037
-0.784237 -0.041006 -3.84457 255 255 255 1752393037
-0.786645 -0.020566 -3.85638 255 255 255 1752393037
-0.789066 0 -3.86825 255 255 255 1752393037
-0.791504 0.020693 -3.8802 255 255 255 1752393037
-0.793956 0.041514 -3.89222 255 255 255 1752393037
-0.796423 0.062465 -3.90431 255 255 255 1752393037
-0.798906 0.083546 -3.91649 255 255 255 1752393037
-0.801404 0.104759 -3.92873 255 255 255 1752393037
-0.803918 0.126105 -3.94106 255 255 255 1752393037
-0.806448 0.147585 -3.95346 255 255 255 1752393037
-0.808994 0.169201 -3.96594 255 255 255 1752393037
-0.811556 0.190954 -3.9785 255 255 255 1752393037
-0.814134 0.212845 -3.99114 255 255 255 1752393037
-0.816728 0.234876 -4.00386 255 255 255 1752393037
-0.81934 0.257048 -4.01666 255 255 255 1752393037
-0.821967 0.279361 -4.02954 255 255 255 1752393037
-0.824612 0.301819 -4.0425 255 255 255 1752393037
-0.827274 0.324421 -4.05555 255 255 255 1752393037
-0.829953 0.34717 -4.06869 255 255 255 1752393037
-0.83265 0.370067 -4.08191 255 255 255 1752393037
-0.835364 0.393112 -4.09521 255 255 255 1752393037
-0.838096 0.416309 -4.10861 255 255 255 1752393037
-0.840846 0.439658 -4.12209 255 255 255 1752393037
-0.843614 0.46316 -4.13565 255 255 255 1752393037
-0.8464 0.486818 -4.14931 255 255 255 1752393037
-0.632219 -1.26444 -3.16132 79 115 115 1752393037
-0.633804 -1.25071 -3.16925 79 115 115 1752393037
-0.635397 -1.23691 -3.17721 79 115 115 1752393037
-0.636999 -1.22304 -3.18522 79 115 115 1752393037
-0.638608 -1.2091 -3.19327 79 115 115 1752393037
-0.640226 -1.19509 -3.20136 79 115 115 1752393037
-0.641852 -1.18101 -3.20949 79 115 115 1752393037
-0.643486 -1.16685 -3.21766 79 115 115 1752393037
-0.645128 -1.15263 -3.22587 79 115 115 1752393037
-0.646779 -1.13833 -3.23413 79 115 115 1752393037
-0.648438 -1.12396 -3.24242 79 115 115 1752393037
-0.650106 -1.10951 -3.25076 79 115 115 1752393037
-0.651783 -1.095 -3.25915 79 115 115 1752393037
-0.653468 -1.0804 -3.26757 79 115 115 1752393037
-0.655162 -1.06573 -3.27604 79 115 115 1752393037
-0.656864 -1.05098 -3.28456 79 115 115 1752393037
-0.658576 -1.03616 -3.29311 79 115 115 1752393037
-0.660296 -1.02126 -3.30172 79 115 115 1752393037
-0.662026 -1.00628 -3.31037 79 115 115 1752393037
-0.663765 -0.991222 -3.31906 79 115 115 1752393037
-0.665512 -0.976085 -3.3278 79 115 115 1752393037
-0.667269 -0.960868 -3.33658 79 115 115 1752393037
-0.669036 -0.94557 -3.34542 79 115 115 1752393037
-0.670811 -0.930192 -3.3543 79 115 115 1752393037
-0.672596 -0.914731 -3.36322 79 115 115 1752393037
-0.674391 -0.899188 -3.3722 79 115 115 1752393037
-0.676195 -0.883562 -3.38122 79 115 115 1752393037
-0.678009 -0.867852 -3.39029 79 115 115 1752393037
-0.679833 -0.852057 -3.39941 79 115 115 1752393037
-0.681666 -0.836177 -3.40858 79 115 115 1752393037
-0.68351 -0.820212 -3.41779 79 115 115 1752393037
-0.685363 -0.804159 -3.42706 79 115 115 1752393037
-0.687227 -0.78802 -3.43638 79 115 115 1752393037
-0.6891 -0.771792 -3.44575 79 115 115 1752393037
-0.690984 -0.755476 -3.45517 79 115 115 1752393037
-0.692878 -0.73907 -3.46464 79 115 115 1752393037
-0.694783 -0.722574 -3.47416 79 115 115 1752393037
-0.696698 -0.705988 -3.48374 79 115 115 1752393037
-0.698624 -0.689309 -3.49337 79 115 115 1752393037
-0.70056 -0.672538 -3.50305 79 115 115 1752393037
-0.702508 -0.655674 -3.51279 79 115 115 1752393037
-0.704466 -0.638716 -3.52258 79 115 115 1752393037
-0.706435 -0.621662 -3.53242 79 115 115 1752393037
-0.708415 -0.604514 -3.54233 79 115 115 1752393037
-0.710406 -0.587269 -3.55228 79 115 115 1752393037
-0.712408 -0.569927 -3.56229 79 115 115 1752393037
-0.714422 -0.552486 -3.57236 79 115 115 1752393037
-0.716447 -0.534947 -3.58249 79 115 115 1752393037
-0.718484 -0.517308 -3.59267 79 115 115 1752393037
-0.720532 -0.499569 -3.60292 79 115 115 1752393037
-0.722592 -0.481728 -3.61322 79 115 115 1752393037
-0.724664 -0.463785 -3.62358 79 115 115 1752393037
-0.726747 -0.445738 -3.634 79 115 115 1752393037
-0.728843 -0.427588 -3.64447 79 115 115 1752393037
-0.730951 -0.409332 -3.65501 79 115 115 1752393037
-0.733071 -0.390971 -3.66562 79 115 115 1752393037
-0.735203 -0.372503 -3.67628 79 115 115 1752393037
-0.737348 -0.353927 -3.687 79 115 115 1752393037
-0.739505 -0.335242 -3.69779 79 115 115 1752393037
-0.741675 -0.316448 -3.70864 79 115 115 1752393037
-0.743858 -0.297543 -3.71956 79 115 115 1752393037
-0.746054 -0.278527 -3.73054 79 115 115 1752393037
-0.748263 -0.259398 -3.74158 79 115 115 1752393037
-0.750484 -0.240155 -3.75269 79 115 115 1752393037
-0.752719 -0.220798 -3.76386 79 115 115 1752393037
-0.754968 -0.201325 -3.77511 79 115 115 1752393037
-0.75723 -0.181735 -3.78642 79 115 115 1752393037
-0.759505 -0.162028 -3.7978 79 115 115 1752393037
-0.761794 -0.142202 -3.80924 79 115 115 1752393037
-0.764097 -0.122256 -3.82076 79 115 115 1752393037
-0.766414 -0.102189 -3.83235 79 115 115 1752393037
-0.768745 -0.081999 -3.844 79 115 115 1752393037
-0.77109 -0.061687 -3.85573 79 115 115 1752393037
-0.76886 -0.041006 -3.84457 255 255 255 1752393037
-0.77122 -0.020566 -3.85637 255 255 255 1752393037
-0.773595 0 -3.86825 255 255 255 1752393037
-0.775984 0.020693 -3.8802 255 255 255 1752393037
-0.778388 0.041514 -3.89222 255 255 255 1752393037
-0.780807 0.062465 -3.90431 255 255 255 1752393037
-0.783241 0.083546 -3.91649 255 255 255 1752393037
-0.78569 0.104759 -3.92873 255 255 255 1752393037
-0.788155 0.126105 -3.94106 255 255 255 1752393037
-0.790635 0.147585 -3.95346 255 255 255 1752393037
-0.793131 0.169201 -3.96594 255 255 255 1752393037
-0.795643 0.190954 -3.9785 255 255 255 1752393037
-0.79817 0.212845 -3.99114 255 255 255 1752393037
-0.800714 0.234876 -4.00386 255 255 255 1752393037
-0.803274 0.257048 -4.01666 255 255 255 1752393037
-0.80585 0.279361 -4.02954 255 255 255 1752393037
-0.808443 0.301819 -4.0425 255 255 255 1752393037
-0.811053 0.324421 -4.05555 255 255 255 1752393037
-0.81368 0.34717 -4.06869 255 255 255 1752393037
-0.816323 0.370067 -4.08191 255 255 255 1752393037
-0.818984 0.393112 -4.09521 255 255 255 1752393037
-0.821663 0.416309 -4.10861 255 255 255 1752393037
-0.824359 0.439658 -4.12209 255 255 255 1752393037
-0.827072 0.46316 -4.13566 255 255 255 1752393037
-0.829804 0.486818 -4.14931 255 255 255 1752393037
-0.619574 -1.26444 -3.16132 79 115 115 1752393037
-0.621128 -1.25071 -3.16925 79 115 115 1752393037
-0.622689 -1.23691 -3.17721 79 115 115 1752393037
-0.624259 -1.22304 -3.18522 79 115 115 1752393037
-0.625836 -1.2091 -3.19327 79 115 115 1752393037
-0.627421 -1.19509 -3.20136 79 115 115 1752393037
-0.629014 -1.18101 -3.20949 79 115 115 1752393037
-0.630616 -1.16685 -3.21766 79 115 115 1752393037
-0.632226 -1.15263 -3.22587 79 115 115 1752393037
-0.633843 -1.13833 -3.23413 79 115 115 1752393037
-0.63547 -1.12396 -3.24242 79 115 115 1752393037
-0.637104 -1.10951 -3.25076 79 115 115 1752393037
-0.638747 -1.095 -3.25915 79 115 115 1752393037
-0.640398 -1.0804 -3.26757 79 115 115 1752393037
-0.642058 -1.06573 -3.27604 79 115 115 1752393037
-0.643727 -1.05098 -3.28456 79 115 115 1752393037
-0.645404 -1.03616 -3.29311 79 115 115 1752393037
-0.647091 -1.02126 -3.30172 79 115 115 1752393037
-0.648786 -1.00628 -3.31037 79 115 115 1752393037
-0.650489 -0.991222 -3.31906 79 115 115 1752393037
-0.652202 -0.976085 -3.3278 79 115 115 1752393037
-0.653924 -0.960868 -3.33659 79 115 115 1752393037
-0.655655 -0.94557 -3.34542 79 115 115 1752393037
-0.657395 -0.930192 -3.3543 79 115 115 1752393037
-0.659144 -0.914731 -3.36322 79 115 115 1752393037
-0.660903 -0.899188 -3.3722 79 115 115 1752393037
-0.662671 -0.883562 -3.38122 79 115 115 1752393037
-0.664449 -0.867852 -3.39029 79 115 115 1752393037
-0.666236 -0.852057 -3.39941 79 115 115 1752393037
-0.668033 -0.836177 -3.40858 79 115 115 1752393037
-0.66984 -0.820212 -3.41779 79 115 115 1752393037
-0.671656 -0.804159 -3.42706 79 115 115 1752393037
-0.673482 -0.78802 -3.43638 79 115 115 1752393037
-0.675318 -0.771792 -3.44575 79 115 115 1752393037
-0.677165 -0.755476 -3.45517 79 115 115 1752393037
-0.679021 -0.73907 -3.46464 79 115 115 1752393037
-0.680887 -0.722574 -3.47416 79 115 115 1752393037
-0.682764 -0.705988 -3.48374 79 115 115 1752393037
-0.684651 -0.689309 -3.49337 79 115 115 1752393037
-0.686549 -0.672538 -3.50305 79 115 115 1752393037
-0.688458 -0.655674 -3.51279 79 115 115 1752393037
-0.690376 -0.638716 -3.52258 79 115 115 1752393037
-0.692306 -0.621663 -3.53242 79 115 115 1752393037
-0.694246 -0.604514 -3.54233 79 115 115 1752393037
-0.696198 -0.587269 -3.55228 79 115 115 1752393037
-0.69816 -0.569927 -3.56229 79 115 115 1752393037
-0.700133 -0.552486 -3.57236 79 115 115 1752393037
-0.702118 -0.534947 -3.58249 79 115 115 1752393037
-0.704114 -0.517308 -3.59267 79 115 115 1752393037
-0.706121 -0.499569 -3.60292 79 115 115 1752393037
-0.70814 -0.481728 -3.61322 79 115 115 1752393037
-0.71017 -0.463785 -3.62358 79 115 115 1752393037
-0.712212 -0.445738 -3.634 79 115 115 1752393037
-0.714266 -0.427588 -3.64447 79 115 115 1752393037
-0.716332 -0.409332 -3.65501 79 115 115 1752393037
-0.718409 -0.390971 -3.66562 79 115 115 1752393037
-0.720499 -0.372503 -3.67628 79 115 115 1752393037
-0.722601 -0.353927 -3.687 79 115 115 1752393037
-0.724715 -0.335242 -3.69779 79 115 115 1752393037
-0.726842 -0.316448 -3.70864 79 115 115 1752393037
-0.728981 -0.297543 -3.71956 79 115 115 1752393037
-0.731133 -0.278527 -3.73054 79 115 115 1752393037
-0.733297 -0.259398 -3.74158 79 115 115 1752393037
-0.735475 -0.240155 -3.75269 79 115 115 1752393037
-0.737665 -0.220798 -3.76386 79 115 115 1752393037
-0.739868 -0.201325 -3.77511 79 115 115 1752393037
-0.742085 -0.181735 -3.78642 79 115 115 1752393037
-0.744315 -0.162028 -3.7978 79 115 115 1752393037
-0.746558 -0.142202 -3.80924 79 115 115 1752393037
-0.748815 -0.122256 -3.82076 79 115 115 1752393037
-0.751086 -0.102189 -3.83235 79 115 115 1752393037
-0.75337 -0.081999 -3.844 79 115 115 1752393037
-0.755669 -0.061687 -3.85573 79 115 115 1752393037
-0.753483 -0.041006 -3.84457 255 255 255 1752393037
-0.755796 -0.020566 -3.85638 255 255 255 1752393037
-0.758123 0 -3.86825 255 255 255 1752393037
-0.760464 0.020693 -3.8802 255 255 255 1752393037
-0.76282 0.041514 -3.89222 255 255 255 1752393037
-0.765191 0.062465 -3.90431 255 255 255 1752393037
-0.767576 0.083546 -3.91649 255 255 255 1752393037
-0.769977 0.104759 -3.92873 255 255 255 1752393037
-0.772392 0.126105 -3.94106 255 255 255 1752393037
-0.774822 0.147585 -3.95346 255 255 255 1752393037
-0.777268 0.169201 -3.96594 255 255 255 1752393037
-0.77973 0.190954 -3.9785 255 255 255 1752393037
-0.782207 0.212845 -3.99114 255 255 255 1752393037
-0.7847 0.234876 -4.00386 255 255 255 1752393037
-0.787208 0.257048 -4.01666 255 255 255 1752393037
-0.789733 0.279361 -4.02954 255 255 255 1752393037
-0.792274 0.301819 -4.0425 255 255 255 1752393037
-0.794832 0.324421 -4.05555 255 255 255 1752393037
-0.797406 0.34717 -4.06869 255 255 255 1752393037
-0.799997 0.370067 -4.08191 255 255 255 1752393037
-0.802604 0.393112 -4.09521 255 255 255 1752393037
-0.805229 0.416309 -4.10861 255 255 255 1752393037
-0.807871 0.439658 -4.12209 255 255 255 1752393037
-0.810531 0.46316 -4.13565 255 255 255 1752393037
-0.813208 0.486818 -4.14931 255 255 255 1752393037
-0.60693 -1.26444 -3.16132 79 115 115 1752393037
-0.608452 -1.25071 -3.16925 79 115 115 1752393037
-0.609981 -1.23691 -3.17721 79 115 115 1752393037
-0.611519 -1.22304 -3.18522 79 115 115 1752393037
-0.613064 -1.2091 -3.19327 79 115 115 1752393037
-0.614617 -1.19509 -3.20136 79 115 115 1752393037
-0.616177 -1.18101 -3.20949 79 115 115 1752393037
-0.617746 -1.16685 -3.21766 79 115 115 1752393037
-0.619323 -1.15263 -3.22587 79 115 115 1752393037
-0.620908 -1.13833 -3.23413 79 115 115 1752393037
-0.622501 -1.12396 -3.24242 79 115 115 1752393037
-0.624102 -1.10951 -3.25076 79 115 115 1752393037
-0.625711 -1.095 -3.25915 79 115 115 1752393037
-0.627329 -1.0804 -3.26757 79 115 115 1752393037
-0.628955 -1.06573 -3.27604 79 115 115 1752393037
-0.63059 -1.05098 -3.28456 79 115 115 1752393037
-0.632233 -1.03616 -3.29311 79 115 115 1752393037
-0.633885 -1.02126 -3.30172 79 115 115 1752393037
-0.635545 -1.00628 -3.31037 79 115 115 1752393037
-0.637214 -0.991222 -3.31906 79 115 115 1752393037
-0.638892 -0.976085 -3.3278 79 115 115 1752393037
-0.640578 -0.960868 -3.33658 79 115 115 1752393037
-0.642274 -0.94557 -3.34542 79 115 115 1752393037
-0.643979 -0.930192 -3.3543 79 115 115 1752393037
-0.645692 -0.914731 -3.36322 79 115 115 1752393037
-0.647415 -0.899188 -3.3722 79 115 115 1752393037
-0.649147 -0.883562 -3.38122 79 115 115 1752393037
-0.650889 -0.867852 -3.39029 79 115 115 1752393037
-0.652639 -0.852057 -3.39941 79 115 115 1752393037
-0.6544 -0.836177 -3.40858 79 115 115 1752393037
-0.656169 -0.820212 -3.41779 79 115 115 1752393037
-0.657949 -0.804159 -3.42706 79 115 115 1752393037
-0.659738 -0.78802 -3.43638 79 115 115 1752393037
-0.661536 -0.771792 -3.44575 79 115 115 1752393037
-0.663345 -0.755476 -3.45517 79 115 115 1752393037
-0.665163 -0.73907 -3.46464 79 115 115 1752393037
-0.666992 -0.722574 -3.47416 79 115 115 1752393037
-0.66883 -0.705988 -3.48374 79 115 115 1752393037
-0.670679 -0.689309 -3.49337 79 115 115 1752393037
-0.672538 -0.672538 -3.50305 79 115 115 1752393037
-0.674407 -0.655674 -3.51279 79 115 115 1752393037
-0.676287 -0.638716 -3.52258 79 115 115 1752393037
-0.678177 -0.621662 -3.53242 79 115 115 1752393037
-0.680078 -0.604514 -3.54233 79 115 115 1752393037
-0.68199 -0.587269 -3.55228 79 115 115 1752393037
-0.683912 -0.569927 -3.56229 79 115 115 1752393037
-0.685845 -0.552486 -3.57236 79 115 115 1752393037
-0.687789 -0.534947 -3.58249 79 115 115 1752393037
-0.689744 -0.517308 -3.59267 79 115 115 1752393037
-0.691711 -0.499569 -3.60292 79 115 115 1752393037
-0.693688 -0.481728 -3.61322 79 115 115 1752393037
-0.695677 -0.463785 -3.62358 79 115 115 1752393037
-0.697677 -0.445738 -3.634 79 115 115 1752393037
-0.699689 -0.427588 -3.64447 79 115 115 1752393037
-0.701713 -0.409332 -3.65501 79 115 115 1752393037
-0.703748 -0.390971 -3.66562 79 115 115 1752393037
-0.705795 -0.372503 -3.67628 79 115 115 1752393037
-0.707854 -0.353927 -3.687 79 115 115 1752393037
-0.709925 -0.335242 -3.69779 79 115 115 1752393037
-0.712008 -0.316448 -3.70864 79 115 115 1752393037
-0.714104 -0.297543 -3.71956 79 115 115 1752393037
-0.716212 -0.278527 -3.73054 79 115 115 1752393037
-0.718332 -0.259398 -3.74158 79 115 115 1752393037
-0.720465 -0.240155 -3.75269 79 115 115 1752393037
-0.722611 -0.220798 -3.76386 79 115 115 1752393037
-0.724769 -0.201325 -3.77511 79 115 115 1752393037
-0.72694 -0.181735 -3.78642 79 115 115 1752393037
-0.729125 -0.162028 -3.7978 79 115 115 1752393037
-0.731322 -0.142202 -3.80924 79 115 115 1752393037
-0.733533 -0.122256 -3.82076 79 115 115 1752393037
-0.735758 -0.102189 -3.83235 79 115 115 1752393037
-0.737995 -0.081999 -3.844 79 115 115 1752393037
-0.740247 -0.061687 -3.85573 79 115 115 1752393037
-0.738502 -0.041028 -3.84664 170 170 170 1752393037
-0.740371 -0.020566 -3.85638 255 255 255 1752393037
-0.742651 0 -3.86825 255 255 255 1752393037
-0.744945 0.020693 -3.8802 255 255 255 1752393037
-0.747253 0.041514 -3.89222 255 255 255 1752393037
-0.749575 0.062465 -3.90431 255 255 255 1752393037
-0.751911 0.083546 -3.91648 255 255 255 1752393037
-0.754263 0.104759 -3.92873 255 255 255 1752393037
-0.756629 0.126105 -3.94106 255 255 255 1752393037
-0.75901 0.147585 -3.95346 255 255 255 1752393037
-0.761406 0.169201 -3.96594 255 255 255 1752393037
-0.763817 0.190954 -3.9785 255 255 255 1752393037
-0.766243 0.212845 -3.99114 255 255 255 1752393037
-0.768685 0.234876 -4.00386 255 255 255 1752393037
-0.771143 0.257048 -4.01666 255 255 255 1752393037
-0.773616 0.279361 -4.02954 255 255 255 1752393037
-0.776106 0.301819 -4.0425 255 255 255 1752393037
-0.778611 0.324421 -4.05555 255 255 255 1752393037
-0.781132 0.34717 -4.06869 255 255 255 1752393037
-0.78367 0.370067 -4.08191 255 255 255 1752393037
-0.786225 0.393112 -4.09521 255 255 255 1752393037
-0.788796 0.416309 -4.10861 255 255 255 1752393037
-0.791384 0.439658 -4.12209 255 255 255 1752393037
-0.793989 0.46316 -4.13566 255 255 255 1752393037
-0.796611 0.486818 -4.14931 255 255 255 1752393037
-0.594285 -1.26444 -3.16132 79 115 115 1752393037
-0.595776 -1.25071 -3.16925 79 115 115 1752393037
-0.597273 -1.23691 -3.17721 79 115 115 1752393037
-0.598779 -1.22304 -3.18522 79 115 115 1752393037
-0.600292 -1.2091 -3.19327 79 115 115 1752393037
-0.601812 -1.19509 -3.20136 79 115 115 1752393037
-0.603341 -1.18101 -3.20949 79 115 115 1752393037
-0.604877 -1.16685 -3.21766 79 115 115 1752393037
-0.60642 -1.15263 -3.22587 79 115 115 1752393037
-0.607972 -1.13833 -3.23413 79 115 115 1752393037
-0.609532 -1.12396 -3.24242 79 115 115 1752393037
-0.6111 -1.10951 -3.25076 79 115 115 1752393037
-0.612676 -1.095 -3.25915 79 115 115 1752393037
-0.61426 -1.0804 -3.26757 79 115 115 1752393037
-0.615852 -1.06573 -3.27604 79 115 115 1752393037
-0.617453 -1.05098 -3.28456 79 115 115 1752393037
-0.619061 -1.03616 -3.29311 79 115 115 1752393037
-0.620679 -1.02126 -3.30172 79 115 115 1752393037
-0.622304 -1.00628 -3.31037 79 115 115 1752393037
-0.623939 -0.991222 -3.31906 79 115 115 1752393037
-0.625582 -0.976085 -3.3278 79 115 115 1752393037
-0.627233 -0.960868 -3.33658 79 115 115 1752393037
-0.628893 -0.94557 -3.34542 79 115 115 1752393037
-0.630563 -0.930192 -3.3543 79 115 115 1752393037
-0.632241 -0.914731 -3.36322 79 115 115 1752393037
-0.633928 -0.899188 -3.3722 79 115 115 1752393037
-0.635624 -0.883562 -3.38122 79 115 115 1752393037
-0.637329 -0.867852 -3.39029 79 115 115 1752393037
-0.639043 -0.852057 -3.39941 79 115 115 1752393037
-0.640766 -0.836177 -3.40858 79 115 115 1752393037
-0.642499 -0.820212 -3.41779 79 115 115 1752393037
-0.644241 -0.804159 -3.42706 79 115 115 1752393037
-0.645993 -0.78802 -3.43638 79 115 115 1752393037
-0.647754 -0.771792 -3.44575 79 115 115 1752393037
-0.649525 -0.755476 -3.45517 79 115 115 1752393037
-0.651306 -0.73907 -3.46464 79 115 115 1752393037
-0.653096 -0.722574 -3.47416 79 115 115 1752393037
-0.654896 -0.705988 -3.48374 79 115 115 1752393037
-0.656707 -0.689309 -3.49337 79 115 115 1752393037
-0.658527 -0.672538 -3.50305 79 115 115 1752393037
-0.660357 -0.655674 -3.51279 79 115 115 1752393037
-0.662198 -0.638716 -3.52258 79 115 115 1752393037
-0.664049 -0.621662 -3.53242 79 115 115 1752393037
-0.66591 -0.604514 -3.54233 79 115 115 1752393037
-0.667782 -0.587269 -3.55228 79 115 115 1752393037
-0.669664 -0.569927 -3.56229 79 115 115 1752393037
-0.671557 -0.552486 -3.57236 79 115 115 1752393037
-0.67346 -0.534947 -3.58249 79 115 115 1752393037
-0.675375 -0.517308 -3.59267 79 115 115 1752393037
-0.6773 -0.499569 -3.60292 79 115 115 1752393037
-0.679236 -0.481728 -3.61322 79 115 115 1752393037
-0.681184 -0.463785 -3.62358 79 115 115 1752393037
-0.683142 -0.445738 -3.634 79 115 115 1752393037
-0.685112 -0.427588 -3.64447 79 115 115 1752393037
-0.687094 -0.409332 -3.65501 79 115 115 1752393037
-0.689087 -0.390971 -3.66562 79 115 115 1752393037
-0.691091 -0.372503 -3.67628 79 115 115 1752393037
-0.693107 -0.353927 -3.687 79 115 115 1752393037
-0.695135 -0.335242 -3.69779 79 115 115 1752393037
-0.697175 -0.316448 -3.70864 79 115 115 1752393037
-0.699227 -0.297543 -3.71956 79 115 115 1752393037
-0.701291 -0.278527 -3.73054 79 115 115 1752393037
-0.703367 -0.259398 -3.74158 79 115 115 1752393037
-0.705455 -0.240155 -3.75269 79 115 115 1752393037
-0.707556 -0.220798 -3.76386 79 115 115 1752393037
-0.70967 -0.201325 -3.77511 79 115 115 1752393037
-0.711796 -0.181735 -3.78642 79 115 115 1752393037
-0.713935 -0.162028 -3.7978 79 115 115 1752393037
-0.716087 -0.142202 -3.80924 79 115 115 1752393037
-0.718251 -0.122256 -3.82076 79 115 115 1752393037
-0.720429 -0.102189 -3.83234 79 115 115 1752393037
-0.722621 -0.081999 -3.844 79 115 115 1752393037
-0.724825 -0.061687 -3.85573 79 115 115 1752393037
-0.72363 -0.041057 -3.84937 170 170 170 1752393037
-0.724947 -0.020566 -3.85638 255 255 255 1752393037
-0.727179 0 -3.86825 255 255 255 1752393037
-0.729425 0.020693 -3.8802 255 255 255 1752393037
-0.731685 0.041514 -3.89222 255 255 255 1752393037
-0.733958 0.062465 -3.90431 255 255 255 1752393037
-0.736247 0.083546 -3.91649 255 255 255 1752393037
-0.738549 0.104759 -3.92873 255 255 255 1752393037
-0.740866 0.126105 -3.94106 255 255 255 1752393037
-0.743197 0.147585 -3.95346 255 255 255 1752393037
-0.745543 0.169201 -3.96594 255 255 255 1752393037
-0.747904 0.190954 -3.9785 255 255 255 1752393037
-0.75028 0.212845 -3.99114 255 255 255 1752393037
-0.752671 0.234876 -4.00386 255 255 255 1752393037
-0.755077 0.257048 -4.01666 255 255 255 1752393037
-0.757499 0.279361 -4.02954 255 255 255 1752393037
-0.759937 0.301819 -4.0425 255 255 255 1752393037
-0.76239 0.324421 -4.05555 255 255 255 1752393037
-0.764859 0.34717 -4.06869 255 255 255 1752393037
-0.767344 0.370067 -4.08191 255 255 255 1752393037
-0.769845 0.393112 -4.09521 255 255 255 1752393037
-0.772363 0.416309 -4.10861 255 255 255 1752393037
-0.774897 0.439658 -4.12209 255 255 255 1752393037
-0.777448 0.46316 -4.13566 255 255 255 1752393037
-0.780016 0.486818 -4.14931 255 255 255 1752393037
-0.581641 -1.26444 -3.16132 79 115 115 1752393037
-0.5831 -1.25071 -3.16925 79 115 115 1752393037
-0.584566 -1.23691 -3.17721 79 115 115 1752393037
-0.586039 -1.22304 -3.18522 79 115 115 1752393037
-0.58752 -1.2091 -3.19327 79 115 115 1752393037
-0.589008 -1.19509 -3.20136 79 115 115 1752393037
-0.590503 -1.18101 -3.20949 79 115 115 1752393037
-0.592007 -1.16685 -3.21766 79 115 115 1752393037
-0.593518 -1.15263 -3.22587 79 115 115 1752393037
-0.595037 -1.13833 -3.23413 79 115 115 1752393037
-0.596563 -1.12396 -3.24242 79 115 115 1752393037
-0.598098 -1.10951 -3.25076 79 115 115 1752393037
-0.59964 -1.095 -3.25915 79 115 115 1752393037
-0.60119 -1.0804 -3.26757 79 115 115 1752393037
-0.602749 -1.06573 -3.27604 79 115 115 1752393037
-0.604315 -1.05098 -3.28456 79 115 115 1752393037
-0.60589 -1.03616 -3.29311 79 115 115 1752393037
-0.607473 -1.02126 -3.30172 79 115 115 1752393037
-0.609064 -1.00628 -3.31037 79 115 115 1752393037
-0.610663 -0.991222 -3.31906 79 115 115 1752393037
-0.612271 -0.976085 -3.3278 79 115 115 1752393037
-0.613888 -0.960868 -3.33658 79 115 115 1752393037
-0.615513 -0.94557 -3.34542 79 115 115 1752393037
-0.617146 -0.930192 -3.3543 79 115 115 1752393037
-0.618789 -0.914731 -3.36322 79 115 115 1752393037
-0.62044 -0.899188 -3.3722 79 115 115 1752393037
-0.6221 -0.883562 -3.38122 79 115 115 1752393037
-0.623768 -0.867852 -3.39029 79 115 115 1752393037
-0.625446 -0.852057 -3.39941 79 115 115 1752393037
-0.627133 -0.836177 -3.40858 79 115 115 1752393037
-0.628829 -0.820212 -3.41779 79 115 115 1752393037
-0.630534 -0.804159 -3.42706 79 115 115 1752393037
-0.632249 -0.78802 -3.43638 79 115 115 1752393037
-0.633972 -0.771792 -3.44575 79 115 115 1752393037
-0.635706 -0.755476 -3.45517 79 115 115 1752393037
-0.637448 -0.73907 -3.46464 79 115 115 1752393037
-0.639201 -0.722574 -3.47416 79 115 115 1752393037
-0.640962 -0.705988 -3.48374 79 115 115 1752393037
-0.642734 -0.689309 -3.49337 79 115 115 1752393037
-0.644516 -0.672538 -3.50305 79 115 115 1752393037
-0.646307 -0.655674 -3.51279 79 115 115 1752393037
-0.648108 -0.638715 -3.52258 79 115 115 1752393037
-0.64992 -0.621662 -3.53242 79 115 115 1752393037
-0.651742 -0.604514 -3.54233 79 115 115 1752393037
-0.653573 -0.587269 -3.55228 79 115 115 1752393037
-0.655415 -0.569926 -3.56229 79 115 115 1752393037
-0.657268 -0.552486 -3.57236 79 115 115 1752393037
-0.659131 -0.534947 -3.58249 79 115 115 1752393037
-0.661005 -0.517308 -3.59267 79 115 115 1752393037
-0.662889 -0.499569 -3.60292 79 115 115 1752393037
-0.664784 -0.481728 -3.61322 79 115 115 1752393037
-0.66669 -0.463785 -3.62358 79 115 115 1752393037
-0.668607 -0.445738 -3.634 79 115 115 1752393037
-0.670536 -0.427588 -3.64447 79 115 115 1752393037
-0.672475 -0.409332 -3.65501 79 115 115 1752393037
-0.674425 -0.390971 -3.66562 79 115 115 1752393037
-0.676387 -0.372503 -3.67628 79 115 115 1752393037
-0.67836 -0.353927 -3.687 79 115 115 1752393037
-0.680345 -0.335242 -3.69779 79 115 115 1752393037
-0.682341 -0.316448 -3.70864 79 115 115 1752393037
-0.684349 -0.297543 -3.71956 79 115 115 1752393037
-0.68637 -0.278527 -3.73054 79 115 115 1752393037
-0.688402 -0.259398 -3.74158 79 115 115 1752393037
-0.690446 -0.240155 -3.75269 79 115 115 1752393037
-0.692502 -0.220798 -3.76386 79 115 115 1752393037
-0.69457 -0.201325 -3.77511 79 115 115 1752393037
-0.696651 -0.181735 -3.78642 79 115 115 1752393037
-0.698745 -0.162028 -3.7978 79 115 115 1752393037
-0.700851 -0.142202 -3.80924 79 115 115 1752393037
-0.702969 -0.122256 -3.82076 79 115 115 1752393037
-0.705101 -0.102189 -3.83235 79 115 115 1752393037
-0.707246 -0.081999 -3.844 79 115 115 1752393037
-0.709403 -0.061687 -3.85573 79 115 115 1752393037
-0.708737 -0.041086 -3.85211 170 170 170 1752393037
-0.709522 -0.020566 -3.85638 255 255 255 1752393037
-0.711707 0 -3.86825 255 255 255 1752393037
-0.713905 0.020693 -3.8802 255 255 255 1752393037
-0.716117 0.041514 -3.89222 255 255 255 1752393037
-0.718342 0.062465 -3.90431 255 255 255 1752393037
-0.720582 0.083546 -3.91648 255 255 255 1752393037
-0.722835 0.104759 -3.92873 255 255 255 1752393037
-0.725103 0.126105 -3.94106 255 255 255 1752393037
-0.727384 0.147585 -3.95346 255 255 255 1752393037
-0.72968 0.169201 -3.96594 255 255 255 1752393037
-0.731991 0.190954 -3.9785 255 255 255 1752393037
-0.734317 0.212845 -3.99114 255 255 255 1752393037
-0.736657 0.234876 -4.00386 255 255 255 1752393037
-0.739012 0.257048 -4.01666 255 255 255 1752393037
-0.741382 0.279361 -4.02954 255 255 255 1752393037
-0.743768 0.301819 -4.0425 255 255 255 1752393037
-0.746169 0.324421 -4.05555 255 255 255 1752393037
-0.748585 0.34717 -4.06869 255 255 255 1752393037
-0.751018 0.370067 -4.08191 255 255 255 1752393037
-0.753465 0.393112 -4.09521 255 255 255 1752393037
-0.75593 0.416309 -4.10861 255 255 255 1752393037
-0.75841 0.439658 -4.12209 255 255 255 1752393037
-0.760906 0.46316 -4.13566 255 255 255 1752393037
-0.763419 0.486818 -4.14931 255 255 255 1752393037
-0.568997 -1.26444 -3.16132 79 115 115 1752393037
-0.570423 -1.25071 -3.16925 79 115 115 1752393037
-0.571858 -1.23691 -3.17721 79 115 115 1752393037
-0.573299 -1.22304 -3.18522 79 115 115 1752393037
-0.574747 -1.2091 -3.19327 79 115 115 1752393037
-0.576203 -1.19509 -3.20136 79 115 115 1752393037
-0.577666 -1.18101 -3.20949 79 115 115 1752393037
-0.579137 -1.16685 -3.21766 79 115 115 1752393037
-0.580615 -1.15263 -3.22587 79 115 115 1752393037
-0.582101 -1.13833 -3.23413 79 115 115 1752393037
-0.583594 -1.12396 -3.24242 79 115 115 1752393037
-0.585096 -1.10951 -3.25076 79 115 115 1752393037
-0.586604 -1.095 -3.25915 79 115 115 1752393037
-0.588121 -1.0804 -3.26757 79 115 115 1752393037
-0.589646 -1.06573 -3.27604 79 115 115 1752393037
-0.591178 -1.05098 -3.28456 79 115 115 1752393037
-0.592718 -1.03616 -3.29311 79 115 115 1752393037
-0.594267 -1.02126 -3.30172 79 115 115 1752393037
-0.595823 -1.00628 -3.31037 79 115 115 1752393037
-0.597388 -0.991222 -3.31906 79 115 115 1752393037
-0.598961 -0.976085 -3.3278 79 115 115 1752393037
-0.600542 -0.960868 -3.33659 79 115 115 1752393037
-0.602132 -0.94557 -3.34542 79 115 115 1752393037
-0.60373 -0.930192 -3.3543 79 115 115 1752393037
-0.605337 -0.914731 -3.36322 79 115 115 1752393037
-0.606952 -0.899188 -3.3722 79 115 115 1752393037
-0.608576 -0.883562 -3.38122 79 115 115 1752393037
-0.610208 -0.867852 -3.39029 79 115 115 1752393037
-0.61185 -0.852057 -3.39941 79 115 115 1752393037
-0.6135 -0.836177 -3.40858 79 115 115 1752393037
-0.615159 -0.820212 -3.41779 79 115 115 1752393037
-0.616827 -0.804159 -3.42706 79 115 115 1752393037
-0.618504 -0.78802 -3.43638 79 115 115 1752393037
-0.62019 -0.771792 -3.44575 79 115 115 1752393037
-0.621886 -0.755476 -3.45517 79 115 115 1752393037
-0.623591 -0.73907 -3.46464 79 115 115 1752393037
-0.625305 -0.722574 -3.47416 79 115 115 1752393037
-0.627028 -0.705988 -3.48374 79 115 115 1752393037
-0.628762 -0.689309 -3.49337 79 115 115 1752393037
-0.630504 -0.672538 -3.50305 79 115 115 1752393037
-0.632257 -0.655674 -3.51279 79 115 115 1752393037
-0.634019 -0.638716 -3.52258 79 115 115 1752393037
-0.635791 -0.621662 -3.53242 79 115 115 1752393037
-0.637573 -0.604514 -3.54233 79 115 115 1752393037
-0.639365 -0.587269 -3.55228 79 115 115 1752393037
-0.641167 -0.569927 -3.56229 79 115 115 1752393037
-0.64298 -0.552486 -3.57236 79 115 115 1752393037
-0.644802 -0.534947 -3.58249 79 115 115 1752393037
-0.646635 -0.517308 -3.59267 79 115 115 1752393037
-0.648479 -0.499569 -3.60292 79 115 115 1752393037
-0.650333 -0.481728 -3.61322 79 115 115 1752393037
-0.652197 -0.463785 -3.62358 79 115 115 1752393037
-0.654072 -0.445738 -3.634 79 115 115 1752393037
-0.655959 -0.427588 -3.64447 79 115 115 1752393037
-0.657856 -0.409332 -3.65501 79 115 115 1752393037
-0.659764 -0.390971 -3.66562 79 115 115 1752393037
-0.661683 -0.372503 -3.67628 79 115 115 1752393037
-0.663613 -0.353927 -3.687 79 115 115 1752393037
-0.665555 -0.335242 -3.69779 79 115 115 1752393037
-0.667508 -0.316448 -3.70864 79 115 115 1752393037
-0.669472 -0.297543 -3.71956 79 115 115 1752393037
-0.671448 -0.278527 -3.73054 79 115 115 1752393037
-0.673436 -0.259398 -3.74158 79 115 115 1752393037
-0.675436 -0.240155 -3.75269 79 115 115 1752393037
-0.677447 -0.220798 -3.76386 79 115 115 1752393037
-0.679471 -0.201325 -3.77511 79 115 115 1752393037
-0.681507 -0.181735 -3.78642 79 115 115 1752393037
-0.683555 -0.162028 -3.7978 79 115 115 1752393037
-0.685615 -0.142202 -3.80924 79 115 115 1752393037
-0.687687 -0.122256 -3.82076 79 115 115 1752393037
-0.689773 -0.102189 -3.83235 79 115 115 1752393037
-0.691871 -0.081999 -3.844 79 115 115 1752393037
-0.693981 -0.061687 -3.85573 79 115 115 1752393037
-0.693823 -0.041115 -3.85485 170 170 170 1752393037
-0.694098 -0.020566 -3.85637 255 255 255 1752393037
-0.696235 0 -3.86825 255 255 255 1752393037
-0.698385 0.020693 -3.8802 255 255 255 1752393037
-0.700549 0.041514 -3.89222 255 255 255 1752393037
-0.702726 0.062465 -3.90431 255 255 255 1752393037
-0.704917 0.083546 -3.91648 255 255 255 1752393037
-0.707121 0.104759 -3.92873 255 255 255 1752393037
-0.709339 0.126105 -3.94106 255 255 255 1752393037
-0.711572 0.147585 -3.95346 255 255 255 1752393037
-0.713818 0.169201 -3.96594 255 255 255 1752393037
-0.716078 0.190954 -3.9785 255 255 255 1752393037
-0.718353 0.212845 -3.99114 255 255 255 1752393037
-0.720643 0.234876 -4.00386 255 255 255 1752393037
-0.722947 0.257048 -4.01666 255 255 255 1752393037
-0.725265 0.279361 -4.02954 255 255 255 1752393037
-0.727599 0.301819 -4.0425 255 255 255 1752393037
-0.729948 0.324421 -4.05555 255 255 255 1752393037
-0.732312 0.34717 -4.06869 255 255 255 1752393037
-0.734691 0.370067 -4.08191 255 255 255 1752393037
-0.737086 0.393112 -4.09521 255 255 255 1752393037
-0.739496 0.416309 -4.1086 255 255 255 1752393037
-0.741923 0.439658 -4.12209 255 255 255 1752393037
-0.744365 0.46316 -4.13565 255 255 255 1752393037
-0.746823 0.486818 -4.14931 255 255 255 1752393037
-0.556352 -1.26444 -3.16132 79 115 115 1752393037
-0.557747 -1.25071 -3.16925 79 115 115 1752393037
-0.55915 -1.23691 -3.17721 79 115 115 1752393037
-0.560559 -1.22304 -3.18522 79 115 115 1752393037
-0.561975 -1.2091 -3.19327 79 115 115 1752393037
-0.563399 -1.19509 -3.20136 79 115 115 1752393037
-0.564829 -1.18101 -3.20949 79 115 115 1752393037
-0.566267 -1.16685 -3.21766 79 115 115 1752393037
-0.567713 -1.15263 -3.22587 79 115 115 1752393037
-0.569166 -1.13833 -3.23413 79 115 115 1752393037
-0.570626 -1.12396 -3.24242 79 115 115 1752393037
-0.572094 -1.10951 -3.25076 79 115 115 1752393037
-0.573569 -1.095 -3.25915 79 115 115 1752393037
-0.575052 -1.0804 -3.26757 79 115 115 1752393037
-0.576542 -1.06573 -3.27604 79 115 115 1752393037
-0.578041 -1.05098 -3.28456 79 115 115 1752393037
-0.579547 -1.03616 -3.29311 79 115 115 1752393037
-0.581061 -1.02126 -3.30172 79 115 115 1752393037
-0.582583 -1.00628 -3.31037 79 115 115 1752393037
-0.584113 -0.991222 -3.31906 79 115 115 1752393037
-0.585651 -0.976085 -3.3278 79 115 115 1752393037
-0.587197 -0.960868 -3.33659 79 115 115 1752393037
-0.588751 -0.94557 -3.34542 79 115 115 1752393037
-0.590314 -0.930192 -3.3543 79 115 115 1752393037
-0.591885 -0.914731 -3.36322 79 115 115 1752393037
-0.593464 -0.899188 -3.3722 79 115 115 1752393037
-0.595052 -0.883562 -3.38122 79 115 115 1752393037
-0.596648 -0.867852 -3.39029 79 115 115 1752393037
-0.598253 -0.852057 -3.39941 79 115 115 1752393037
-0.599866 -0.836177 -3.40858 79 115 115 1752393037
-0.601489 -0.820212 -3.41779 79 115 115 1752393037
-0.60312 -0.804159 -3.42706 79 115 115 1752393037
-0.604759 -0.78802 -3.43638 79 115 115 1752393037
-0.606408 -0.771792 -3.44575 79 115 115 1752393037
-0.608066 -0.755476 -3.45517 79 115 115 1752393037
-0.609733 -0.73907 -3.46464 79 115 115 1752393037
-0.611409 -0.722574 -3.47416 79 115 115 1752393037
-0.613095 -0.705988 -3.48374 79 115 115 1752393037
-0.614789 -0.689309 -3.49337 79 115 115 1752393037
-0.616493 -0.672538 -3.50305 79 115 115 1752393037
-0.618207 -0.655674 -3.51279 79 115 115 1752393037
-0.61993 -0.638716 -3.52258 79 115 115 1752393037
-0.621662 -0.621662 -3.53242 79 115 115 1752393037
-0.623405 -0.604514 -3.54233 79 115 115 1752393037
-0.625157 -0.587269 -3.55228 79 115 115 1752393037
-0.626919 -0.569927 -3.56229 79 115 115 1752393037
-0.628691 -0.552486 -3.57236 79 115 115 1752393037
-0.630473 -0.534947 -3.58249 79 115 115 1752393037
-0.632266 -0.517308 -3.59267 79 115 115 1752393037
-0.634068 -0.499569 -3.60292 79 115 115 1752393037
-0.635881 -0.481728 -3.61322 79 115 115 1752393037
-0.637704 -0.463785 -3.62358 79 115 115 1752393037
-0.639538 -0.445738 -3.634 79 115 115 1752393037
-0.641382 -0.427588 -3.64447 79 115 115 1752393037
-0.643237 -0.409332 -3.65501 79 115 115 1752393037
-0.645102 -0.390971 -3.66562 79 115 115 1752393037
-0.646979 -0.372503 -3.67628 79 115 115 1752393037
-0.648866 -0.353927 -3.687 79 115 115 1752393037
-0.650765 -0.335242 -3.69779 79 115 115 1752393037
-0.652674 -0.316448 -3.70864 79 115 115 1752393037
-0.654595 -0.297543 -3.71956 79 115 115 1752393037
-0.656527 -0.278527 -3.73054 79 115 115 1752393037
-0.658471 -0.259398 -3.74158 79 115 115 1752393037
-0.660426 -0.240155 -3.75269 79 115 115 1752393037
-0.662393 -0.220798 -3.76386 79 115 115 1752393037
-0.664372 -0.201325 -3.77511 79 115 115 1752393037
-0.666362 -0.181735 -3.78642 79 115 115 1752393037
-0.668364 -0.162028 -3.7978 79 115 115 1752393037
-0.670379 -0.142202 -3.80924 79 115 115 1752393037
-0.672406 -0.122256 -3.82076 79 115 115 1752393037
-0.674444 -0.102189 -3.83234 79 115 115 1752393037
-0.676496 -0.081999 -3.844 79 115 115 1752393037
-0.67856 -0.061687 -3.85573 79 115 115 1752393037
-0.678887 -0.041145 -3.85759 170 170 170 1752393037
-0.678674 -0.020566 -3.85638 255 255 255 1752393037
-0.680763 0 -3.86825 255 255 255 1752393037
-0.682866 0.020693 -3.8802 255 255 255 1752393037
-0.684981 0.041514 -3.89222 255 255 255 1752393037
-0.68711 0.062465 -3.90431 255 255 255 1752393037
-0.689252 0.083546 -3.91649 255 255 255 1752393037
-0.691407 0.104759 -3.92873 255 255 255 1752393037
-0.693576 0.126105 -3.94106 255 255 255 1752393037
-0.695759 0.147585 -3.95346 255 255 255 1752393037
-0.697955 0.169201 -3.96594 255 255 255 1752393037
-0.700166 0.190954 -3.9785 255 255 255 1752393037
-0.70239 0.212845 -3.99114 255 255 255 1752393037
-0.704628 0.234876 -4.00386 255 255 255 1752393037
-0.706881 0.257048 -4.01666 255 255 255 1752393037
-0.709148 0.279361 -4.02954 255 255 255 1752393037
-0.71143 0.301819 -4.0425 255 255 255 1752393037
-0.713727 0.324421 -4.05555 255 255 255 1752393037
-0.716038 0.34717 -4.06869 255 255 255 1752393037
-0.718364 0.370067 -4.08191 255 255 255 1752393037
-0.720706 0.393112 -4.09521 255 255 255 1752393037
-0.723063 0.416309 -4.1086 255 255 255 1752393037
-0.725435 0.439658 -4.12209 255 255 255 1752393037
-0.727823 0.46316 -4.13566 255 255 255 1752393037
-0.730227 0.486818 -4.14931 255 255 255 1752393037
-0.543708 -1.26444 -3.16132 79 115 115 1752393037
-0.545071 -1.25071 -3.16925 79 115 115 1752393037
-0.546442 -1.23691 -3.17721 79 115 115 1752393037
-0.547819 -1.22304 -3.18522 79 115 115 1752393037
-0.549203 -1.2091 -3.19327 79 115 115 1752393037
-0.550594 -1.19509 -3.20136 79 115 115 1752393037
-0.551992 -1.18101 -3.20949 79 115 115 1752393037
-0.553398 -1.16685 -3.21766 79 115 115 1752393037
-0.55481 -1.15263 -3.22587 79 115 115 1752393037
-0.55623 -1.13833 -3.23413 79 115 115 1752393037
-0.557657 -1.12396 -3.24242 79 115 115 1752393037
-0.559091 -1.10951 -3.25076 79 115 115 1752393037
-0.560533 -1.095 -3.25915 79 115 115 1752393037
-0.561982 -1.0804 -3.26757 79 115 115 1752393037
-0.563439 -1.06573 -3.27604 79 115 115 1752393037
-0.564903 -1.05098 -3.28456 79 115 115 1752393037
-0.566375 -1.03616 -3.29311 79 115 115 1752393037
-0.567855 -1.02126 -3.30172 79 115 115 1752393037
-0.569342 -1.00628 -3.31037 79 115 115 1752393037
-0.570838 -0.991222 -3.31906 79 115 115 1752393037
-0.572341 -0.976085 -3.3278 79 115 115 1752393037
-0.573852 -0.960868 -3.33659 79 115 115 1752393037
-0.575371 -0.94557 -3.34542 79 115 115 1752393037
-0.576898 -0.930192 -3.3543 79 115 115 1752393037
-0.578433 -0.914731 -3.36322 79 115 115 1752393037
-0.579976 -0.899188 -3.3722 79 115 115 1752393037
-0.581528 -0.883562 -3.38122 79 115 115 1752393037
-0.583088 -0.867852 -3.39029 79 115 115 1752393037
-0.584656 -0.852057 -3.39941 79 115 115 1752393037
-0.586233 -0.836177 -3.40858 79 115 115 1752393037
-0.587818 -0.820212 -3.41779 79 115 115 1752393037
-0.589412 -0.804159 -3.42706 79 115 115 1752393037
-0.591015 -0.78802 -3.43638 79 115 115 1752393037
-0.592626 -0.771792 -3.44575 79 115 115 1752393037
-0.594247 -0.755476 -3.45517 79 115 115 1752393037
-0.595876 -0.73907 -3.46464 79 115 115 1752393037
-0.597514 -0.722575 -3.47416 79 115 115 1752393037
-0.599161 -0.705988 -3.48374 79 115 115 1752393037
-0.600817 -0.689309 -3.49337 79 115 115 1752393037
-0.602482 -0.672538 -3.50305 79 115 115 1752393037
-0.604157 -0.655674 -3.51279 79 115 115 1752393037
-0.60584 -0.638716 -3.52258 79 115 115 1752393037
-0.607534 -0.621663 -3.53242 79 115 115 1752393037
-0.609237 -0.604514 -3.54233 79 115 115 1752393037
-0.610949 -0.587269 -3.55228 79 115 115 1752393037
-0.612671 -0.569927 -3.56229 79 115 115 1752393037
-0.614403 -0.552486 -3.57237 79 115 115 1752393037
-0.616144 -0.534947 -3.58249 79 115 115 1752393037
-0.617896 -0.517308 -3.59267 79 115 115 1752393037
-0.619657 -0.499569 -3.60292 79 115 115 1752393037
-0.621429 -0.481728 -3.61322 79 115 115 1752393037
-0.623211 -0.463785 -3.62358 79 115 115 1752393037
-0.625003 -0.445738 -3.634 79 115 115 1752393037
-0.626805 -0.427588 -3.64447 79 115 115 1752393037
-0.628618 -0.409332 -3.65501 79 115 115 1752393037
-0.630441 -0.390971 -3.66562 79 115 115 1752393037
-0.632275 -0.372503 -3.67628 79 115 115 1752393037
-0.634119 -0.353927 -3.687 79 115 115 1752393037
-0.635975 -0.335242 -3.69779 79 115 115 1752393037
-0.637841 -0.316448 -3.70864 79 115 115 1752393037
-0.639718 -0.297543 -3.71956 79 115 115 1752393037
-0.641606 -0.278527 -3.73054 79 115 115 1752393037
-0.643506 -0.259398 -3.74158 79 115 115 1752393037
-0.645416 -0.240155 -3.75269 79 115 115 1752393037
-0.647339 -0.220798 -3.76386 79 115 115 1752393037
-0.649272 -0.201325 -3.77511 79 115 115 1752393037
-0.651217 -0.181735 -3.78642 79 115 115 1752393037
-0.653174 -0.162028 -3.7978 79 115 115 1752393037
-0.655143 -0.142202 -3.80924 79 115 115 1752393037
-0.657124 -0.122256 -3.82076 79 115 115 1752393037
-0.659116 -0.102189 -3.83235 79 115 115 1752393037
-0.661121 -0.081999 -3.844 79 115 115 1752393037
-0.663138 -0.061687 -3.85573 79 115 115 1752393037
-0.663931 -0.041174 -3.86034 170 170 170 1752393037
-0.663249 -0.020566 -3.85637 255 255 255 1752393037
-0.665291 0 -3.86825 255 255 255 1752393037
-0.667346 0.020693 -3.8802 255 255 255 1752393037
-0.669414 0.041514 -3.89222 255 255 255 1752393037
-0.671494 0.062465 -3.90431 255 255 255 1752393037
-0.673587 0.083546 -3.91648 255 255 255 1752393037
-0.675694 0.104759 -3.92873 255 255 255 1752393037
-0.677813 0.126105 -3.94106 255 255 255 1752393037
-0.679946 0.147585 -3.95346 255 255 255 1752393037
-0.682093 0.169201 -3.96594 255 255 255 1752393037
-0.684253 0.190954 -3.9785 255 255 255 1752393037
-0.686426 0.212845 -3.99114 255 255 255 1752393037
-0.688614 0.234876 -4.00386 255 255 255 1752393037
-0.690816 0.257048 -4.01666 255 255 255 1752393037
-0.693031 0.279361 -4.02954 255 255 255 1752393037
-0.695261 0.301819 -4.0425 255 255 255 1752393037
-0.697506 0.324421 -4.05555 255 255 255 1752393037
-0.699765 0.34717 -4.06869 255 255 255 1752393037
-0.702038 0.370067 -4.08191 255 255 255 1752393037
-0.704326 0.393112 -4.09521 255 255 255 1752393037
-0.70663 0.416309 -4.10861 255 255 255 1752393037
-0.708948 0.439658 -4.12209 255 255 255 1752393037
-0.711282 0.46316 -4.13566 255 255 255 1752393037
-0.713631 0.486818 -4.14931 255 255 255 1752393037
-0.527912 -1.25693 -3.14256 255 255 255 1752393037
-0.529236 -1.24328 -3.15044 255 255 255 1752393037
-0.530566 -1.22957 -3.15836 255 255 255 1752393037
-0.531903 -1.21578 -3.16632 255 255 255 1752393037
-0.536431 -1.2091 -3.19327 79 115 115 1752393037
-0.53779 -1.19509 -3.20136 79 115 115 1752393037
-0.539155 -1.18101 -3.20949 79 115 115 1752393037
-0.540528 -1.16685 -3.21766 79 115 115 1752393037
-0.541908 -1.15263 -3.22587 79 115 115 1752393037
-0.543294 -1.13833 -3.23413 79 115 115 1752393037
-0.544688 -1.12396 -3.24242 79 115 115 1752393037
-0.546089 -1.10951 -3.25076 79 115 115 1752393037
-0.547497 -1.095 -3.25915 79 115 115 1752393037
-0.548913 -1.0804 -3.26757 79 115 115 1752393037
-0.550336 -1.06573 -3.27604 79 115 115 1752393037
-0.551766 -1.05098 -3.28456 79 115 115 1752393037
-0.553204 -1.03616 -3.29311 79 115 115 1752393037
-0.554649 -1.02126 -3.30172 79 115 115 1752393037
-0.556102 -1.00628 -3.31037 79 115 115 1752393037
-0.557562 -0.991222 -3.31906 79 115 115 1752393037
-0.55903 -0.976085 -3.3278 79 115 115 1752393037
-0.560506 -0.960868 -3.33659 79 115 115 1752393037
-0.56199 -0.94557 -3.34542 79 115 115 1752393037
-0.563481 -0.930191 -3.3543 79 115 115 1752393037
-0.564981 -0.914731 -3.36322 79 115 115 1752393037
-0.566488 -0.899188 -3.3722 79 115 115 1752393037
-0.568004 -0.883562 -3.38122 79 115 115 1752393037
-0.569528 -0.867852 -3.39029 79 115 115 1752393037
-0.57106 -0.852057 -3.39941 79 115 115 1752393037
-0.5726 -0.836177 -3.40858 79 115 115 1752393037
-0.574148 -0.820212 -3.41779 79 115 115 1752393037
-0.575705 -0.804159 -3.42706 79 115 115 1752393037
-0.57727 -0.78802 -3.43638 79 115 115 1752393037
-0.578844 -0.771792 -3.44575 79 115 115 1752393037
-0.580427 -0.755476 -3.45517 79 115 115 1752393037
-0.582018 -0.73907 -3.46464 79 115 115 1752393037
-0.583618 -0.722574 -3.47416 79 115 115 1752393037
-0.585227 -0.705988 -3.48374 79 115 115 1752393037
-0.586844 -0.689309 -3.49337 79 115 115 1752393037
-0.588471 -0.672538 -3.50305 79 115 115 1752393037
-0.590106 -0.655674 -3.51279 79 115 115 1752393037
-0.591751 -0.638716 -3.52258 79 115 115 1752393037
-0.593405 -0.621662 -3.53242 79 115 115 1752393037
-0.595068 -0.604514 -3.54233 79 115 115 1752393037
-0.596741 -0.587269 -3.55228 79 115 115 1752393037
-0.598423 -0.569927 -3.56229 79 115 115 1752393037
-0.600114 -0.552486 -3.57236 79 115 115 1752393037
-0.601816 -0.534947 -3.58249 79 115 115 1752393037
-0.603526 -0.517308 -3.59267 79 115 115 1752393037
-0.605247 -0.499569 -3.60292 79 115 115 1752393037
-0.606977 -0.481728 -3.61322 79 115 115 1752393037
-0.608717 -0.463785 -3.62358 79 115 115 1752393037
-0.610468 -0.445738 -3.634 79 115 115 1752393037
-0.612228 -0.427588 -3.64447 79 115 115 1752393037
-0.613999 -0.409332 -3.65501 79 115 115 1752393037
-0.615779 -0.390971 -3.66562 79 115 115 1752393037
-0.617571 -0.372503 -3.67628 79 115 115 1752393037
-0.619372 -0.353927 -3.687 79 115 115 1752393037
-0.621185 -0.335242 -3.69779 79 115 115 1752393037
-0.623007 -0.316448 -3.70864 79 115 115 1752393037
-0.624841 -0.297543 -3.71956 79 115 115 1752393037
-0.626685 -0.278527 -3.73054 79 115 115 1752393037
-0.62854 -0.259398 -3.74158 79 115 115 1752393037
-0.630407 -0.240155 -3.75269 79 115 115 1752393037
-0.632284 -0.220798 -3.76387 79 115 115 1752393037
-0.634173 -0.201325 -3.77511 79 115 115 1752393037
-0.636073 -0.181735 -3.78642 79 115 115 1752393037
-0.637984 -0.162028 -3.7978 79 115 115 1752393037
-0.639907 -0.142202 -3.80924 79 115 115 1752393037
-0.641842 -0.122256 -3.82076 79 115 115 1752393037
-0.643788 -0.102189 -3.83235 79 115 115 1752393037
-0.645746 -0.082 -3.844 79 115 115 1752393037
-0.647716 -0.061687 -3.85573 79 115 115 1752393037
-0.648649 -0.041184 -3.86128 170 170 170 1752393037
-0.647825 -0.020566 -3.85637 255 255 255 1752393037
-0.649819 0 -3.86825 255 255 255 1752393037
-0.651826 0.020693 -3.8802 255 255 255 1752393037
-0.653846 0.041514 -3.89222 255 255 255 1752393037
-0.655878 0.062465 -3.90431 255 255 255 1752393037
-0.657923 0.083546 -3.91649 255 255 255 1752393037
-0.65998 0.104759 -3.92873 255 255 255 1752393037
-0.66205 0.126105 -3.94106 255 255 255 1752393037
-0.664134 0.147585 -3.95346 255 255 255 1752393037
-0.66623 0.169201 -3.96594 255 255 255 1752393037
-0.66834 0.190954 -3.9785 255 255 255 1752393037
-0.670463 0.212845 -3.99114 255 255 255 1752393037
-0.6726 0.234876 -4.00386 255 255 255 1752393037
-0.67475 0.257048 -4.01666 255 255 255 1752393037
-0.676914 0.279361 -4.02954 255 255 255 1752393037
-0.679092 0.301819 -4.0425 255 255 255 1752393037
-0.681284 0.324421 -4.05555 255 255 255 1752393037
-0.683491 0.34717 -4.06869 255 255 255 1752393037
-0.685712 0.370067 -4.08191 255 255 255 1752393037
