ply
format ascii 1.0
comment PCL generated
obj_info is_cyberware_data 0
obj_info is_mesh 0
obj_info is_warped 0
obj_info is_interlaced 0
obj_info num_cols 20222
obj_info num_rows 1
obj_info echo_rgb_offset_x 0
obj_info echo_rgb_offset_y 0
obj_info echo_rgb_offset_z 0
obj_info echo_rgb_frontfocus 0.0
obj_info echo_rgb_backfocus 0.0
obj_info echo_rgb_pixelsize 0.0
obj_info echo_rgb_centerpixel 0
obj_info echo_frames 1
obj_info echo_lgincr 0.0
element vertex 928
property float x
property float y
property float z
property uchar red
property uchar green
property uchar blue
property uint label
end_header
-0.709376 -0.420371 -3.28438 102 117 122 1752393037
-0.711174 -0.403876 -3.29271 102 117 122 1752393037
-0.712981 -0.387298 -3.30107 102 117 122 1752393037
-0.708953 -0.367605 -3.28242 177 105 42 1752393037
-0.694169 -0.342799 -3.21397 177 105 42 1752393037
-0.695946 -0.326493 -3.2222 177 105 42 1752393037
-0.697732 -0.310103 -3.23047 177 105 42 1752393037
-0.699528 -0.293629 -3.23879 177 105 42 1752393037
-0.701333 -0.27707 -3.24714 177 105 42 1752393037
-0.703148 -0.260425 -3.25554 177 105 42 1752393037
-0.704971 -0.243694 -3.26399 177 105 42 1752393037
-0.706805 -0.226876 -3.27248 177 105 42 1752393037
-0.708647 -0.20997 -3.28101 177 105 42 1752393037
-0.702827 -0.190891 -3.25406 255 255 255 1752393037
-0.692506 -0.170989 -3.20627 204 182 121 1752393037
-0.694326 -0.154295 -3.2147 204 182 121 1752393037
-0.696155 -0.137512 -3.22317 204 182 121 1752393037
-0.697994 -0.120641 -3.23168 204 182 121 1752393037
-0.699843 -0.10368 -3.24025 204 182 121 1752393037
-0.701702 -0.08663 -3.24885 204 182 121 1752393037
-0.70357 -0.069488 -3.2575 204 182 121 1752393037
-0.705448 -0.052255 -3.2662 204 182 121 1752393037
-0.707337 -0.03493 -3.27494 204 182 121 1752393037
-0.709236 -0.017512 -3.28373 204 182 121 1752393037
-0.711145 0 -3.29257 204 182 121 1752393037
-0.713064 0.017607 -3.30146 204 182 121 1752393037
-0.714993 0.035308 -3.31039 204 182 121 1752393037
-0.716933 0.053106 -3.31937 204 182 121 1752393037
-0.718884 0.071001 -3.3284 204 182 121 1752393037
-0.720845 0.088993 -3.33748 204 182 121 1752393037
-0.722817 0.107084 -3.34661 204 182 121 1752393037
-0.7248 0.125274 -3.35579 204 182 121 1752393037
-0.726794 0.143564 -3.36503 204 182 121 1752393037
-0.728798 0.161955 -3.37431 204 182 121 1752393037
-0.730814 0.180448 -3.38364 204 182 121 1752393037
-0.732841 0.199043 -3.39302 204 182 121 1752393037
-0.734879 0.217742 -3.40246 204 182 121 1752393037
-0.736929 0.236545 -3.41195 204 182 121 1752393037
-0.73899 0.255453 -3.42149 204 182 121 1752393037
-0.741062 0.274468 -3.43109 204 182 121 1752393037
-0.743147 0.293589 -3.44074 204 182 121 1752393037
-0.745243 0.312818 -3.45044 204 182 121 1752393037
-0.747351 0.332156 -3.4602 204 182 121 1752393037
-0.749471 0.351604 -3.47002 204 182 121 1752393037
-0.751603 0.371162 -3.47989 204 182 121 1752393037
-0.753747 0.390832 -3.48982 204 182 121 1752393037
-0.755903 0.410614 -3.4998 204 182 121 1752393037
-0.758072 0.43051 -3.50984 204 182 121 1752393037
-0.760253 0.45052 -3.51994 204 182 121 1752393037
-0.762447 0.470646 -3.5301 204 182 121 1752393037
-0.764653 0.490888 -3.54031 204 182 121 1752393037
-0.766872 0.511248 -3.55059 204 182 121 1752393037
-0.769105 0.531727 -3.56092 204 182 121 1752393037
-0.77135 0.552325 -3.57132 204 182 121 1752393037
-0.773608 0.573043 -3.58177 204 182 121 1752393037
-0.77588 0.593883 -3.59229 204 182 121 1752393037
-0.778165 0.614846 -3.60287 204 182 121 1752393037
-0.780464 0.635933 -3.61351 204 182 121 1752393037
-0.782776 0.657145 -3.62422 204 182 121 1752393037
-0.785102 0.678483 -3.63499 204 182 121 1752393037
-0.787441 0.699948 -3.64582 204 182 121 1752393037
-0.789795 0.721541 -3.65672 204 182 121 1752393037
-0.792163 0.743264 -3.66768 204 182 121 1752393037
-0.61792 -1.16589 -2.91493 102 117 122 1752393037
-0.61931 -1.15293 -2.92148 102 117 122 1752393037
-0.620706 -1.13991 -2.92807 102 117 122 1752393037
-0.622108 -1.12684 -2.93468 102 117 122 1752393037
-0.623516 -1.1137 -2.94132 102 117 122 1752393037
-0.624931 -1.10051 -2.948 102 117 122 1752393037
-0.626353 -1.08725 -2.9547 102 117 122 1752393037
-0.62778 -1.07394 -2.96144 102 117 122 1752393037
-0.629215 -1.06056 -2.96821 102 117 122 1752393037
-0.630656 -1.04713 -2.975 102 117 122 1752393037
-0.632103 -1.03363 -2.98183 102 117 122 1752393037
-0.633557 -1.02007 -2.98869 102 117 122 1752393037
-0.635018 -1.00644 -2.99558 102 117 122 1752393037
-0.636486 -0.992758 -3.00251 102 117 122 1752393037
-0.63796 -0.979008 -3.00946 102 117 122 1752393037
-0.639442 -0.965195 -3.01645 102 117 122 1752393037
-0.64093 -0.951317 -3.02347 102 117 122 1752393037
-0.642425 -0.937375 -3.03052 102 117 122 1752393037
-0.643927 -0.923367 -3.03761 102 117 122 1752393037
-0.645436 -0.909294 -3.04473 102 117 122 1752393037
-0.646952 -0.895154 -3.05188 102 117 122 1752393037
-0.648476 -0.880948 -3.05907 102 117 122 1752393037
-0.650006 -0.866675 -3.06629 102 117 122 1752393037
-0.651544 -0.852334 -3.07354 102 117 122 1752393037
-0.653089 -0.837926 -3.08083 102 117 122 1752393037
-0.654642 -0.823449 -3.08815 102 117 122 1752393037
-0.656202 -0.808903 -3.09551 102 117 122 1752393037
-0.657769 -0.794287 -3.10291 102 117 122 1752393037
-0.659344 -0.779601 -3.11033 102 117 122 1752393037
-0.660926 -0.764845 -3.1178 102 117 122 1752393037
-0.662516 -0.750018 -3.1253 102 117 122 1752393037
-0.664114 -0.73512 -3.13283 102 117 122 1752393037
-0.665719 -0.720149 -3.14041 102 117 122 1752393037
-0.667332 -0.705106 -3.14802 102 117 122 1752393037
-0.668953 -0.689989 -3.15566 102 117 122 1752393037
-0.670582 -0.6748 -3.16335 102 117 122 1752393037
-0.672219 -0.659536 -3.17107 102 117 122 1752393037
-0.673864 -0.644197 -3.17883 102 117 122 1752393037
-0.675517 -0.628783 -3.18663 102 117 122 1752393037
-0.677178 -0.613293 -3.19446 102 117 122 1752393037
-0.678847 -0.597727 -3.20234 102 117 122 1752393037
-0.680524 -0.582084 -3.21025 102 117 122 1752393037
-0.68221 -0.566363 -3.2182 102 117 122 1752393037
-0.683904 -0.550565 -3.2262 102 117 122 1752393037
-0.685607 -0.534687 -3.23423 102 117 122 1752393037
-0.687318 -0.518731 -3.2423 102 117 122 1752393037
-0.689038 -0.502694 -3.25041 102 117 122 1752393037
-0.690766 -0.486577 -3.25856 102 117 122 1752393037
-0.692503 -0.470379 -3.26676 102 117 122 1752393037
-0.694249 -0.4541 -3.27499 102 117 122 1752393037
-0.696003 -0.437738 -3.28327 102 117 122 1752393037
-0.697767 -0.421293 -3.29159 102 117 122 1752393037
-0.699539 -0.404765 -3.29995 102 117 122 1752393037
-0.701321 -0.388152 -3.30835 102 117 122 1752393037
-0.703111 -0.371455 -3.3168 102 117 122 1752393037
-0.685149 -0.344729 -3.23207 177 105 42 1752393037
-0.684576 -0.327219 -3.22936 177 105 42 1752393037
-0.686337 -0.310794 -3.23767 177 105 42 1752393037
-0.688108 -0.294285 -3.24602 177 105 42 1752393037
-0.689887 -0.27769 -3.25442 177 105 42 1752393037
-0.691676 -0.26101 -3.26286 177 105 42 1752393037
-0.693474 -0.244242 -3.27134 177 105 42 1752393037
-0.695281 -0.227388 -3.27986 177 105 42 1752393037
-0.697098 -0.210445 -3.28843 177 105 42 1752393037
-0.694742 -0.192256 -3.27732 255 255 255 1752393037
-0.682032 -0.17158 -3.21736 255 255 255 1752393037
-0.683022 -0.154647 -3.22203 204 182 121 1752393037
-0.684826 -0.137827 -3.23054 204 182 121 1752393037
-0.686639 -0.120918 -3.23909 204 182 121 1752393037
-0.688462 -0.103919 -3.24769 204 182 121 1752393037
-0.690295 -0.08683 -3.25634 204 182 121 1752393037
-0.692137 -0.069649 -3.26503 204 182 121 1752393037
-0.693989 -0.052377 -3.27377 204 182 121 1752393037
-0.695851 -0.035011 -3.28255 204 182 121 1752393037
-0.697724 -0.017553 -3.29138 204 182 121 1752393037
-0.699606 0 -3.30026 204 182 121 1752393037
-0.701498 0.017648 -3.30919 204 182 121 1752393037
-0.703401 0.035391 -3.31817 204 182 121 1752393037
-0.705314 0.053231 -3.32719 204 182 121 1752393037
-0.707238 0.071169 -3.33626 204 182 121 1752393037
-0.709172 0.089204 -3.34539 204 182 121 1752393037
-0.711116 0.107338 -3.35456 204 182 121 1752393037
-0.713072 0.125572 -3.36379 204 182 121 1752393037
-0.715038 0.143907 -3.37306 204 182 121 1752393037
-0.717015 0.162343 -3.38239 204 182 121 1752393037
-0.719003 0.180881 -3.39176 204 182 121 1752393037
-0.721002 0.199522 -3.40119 204 182 121 1752393037
-0.723012 0.218268 -3.41068 204 182 121 1752393037
-0.725033 0.237118 -3.42021 204 182 121 1752393037
-0.727066 0.256074 -3.4298 204 182 121 1752393037
-0.72911 0.275136 -3.43944 204 182 121 1752393037
-0.731166 0.294306 -3.44914 204 182 121 1752393037
-0.733233 0.313584 -3.45889 204 182 121 1752393037
-0.735312 0.332972 -3.4687 204 182 121 1752393037
-0.737403 0.352469 -3.47856 204 182 121 1752393037
-0.739506 0.372078 -3.48848 204 182 121 1752393037
-0.741621 0.3918 -3.49846 204 182 121 1752393037
-0.743747 0.411634 -3.50849 204 182 121 1752393037
-0.745887 0.431582 -3.51858 204 182 121 1752393037
-0.748038 0.451646 -3.52873 204 182 121 1752393037
-0.750202 0.471825 -3.53894 204 182 121 1752393037
-0.752379 0.492122 -3.54921 204 182 121 1752393037
-0.754568 0.512537 -3.55954 204 182 121 1752393037
-0.75677 0.53307 -3.56992 204 182 121 1752393037
-0.758985 0.553725 -3.58037 204 182 121 1752393037
-0.761212 0.5745 -3.59088 204 182 121 1752393037
-0.763453 0.595398 -3.60145 204 182 121 1752393037
-0.765707 0.616419 -3.61209 204 182 121 1752393037
-0.767975 0.637564 -3.62278 204 182 121 1752393037
-0.770256 0.658835 -3.63354 204 182 121 1752393037
-0.772551 0.680233 -3.64437 204 182 121 1752393037
-0.774859 0.701759 -3.65526 204 182 121 1752393037
-0.777181 0.723414 -3.66621 204 182 121 1752393037
-0.779517 0.745199 -3.67723 204 182 121 1752393037
-0.607442 -1.16816 -2.9206 102 117 122 1752393037
-0.60881 -1.15518 -2.92718 102 117 122 1752393037
-0.610185 -1.14214 -2.93379 102 117 122 1752393037
-0.611566 -1.12905 -2.94043 102 117 122 1752393037
-0.612954 -1.11589 -2.9471 102 117 122 1752393037
-0.614347 -1.10267 -2.9538 102 117 122 1752393037
-0.615747 -1.0894 -2.96054 102 117 122 1752393037
-0.617154 -1.07606 -2.9673 102 117 122 1752393037
-0.618567 -1.06267 -2.97409 102 117 122 1752393037
-0.619986 -1.04921 -2.98092 102 117 122 1752393037
-0.621412 -1.03569 -2.98777 102 117 122 1752393037
-0.622844 -1.0221 -2.99466 102 117 122 1752393037
-0.624283 -1.00846 -3.00158 102 117 122 1752393037
-0.625729 -0.994749 -3.00853 102 117 122 1752393037
-0.627182 -0.980976 -3.01551 102 117 122 1752393037
-0.628641 -0.96714 -3.02253 102 117 122 1752393037
-0.630107 -0.953238 -3.02958 102 117 122 1752393037
-0.63158 -0.939272 -3.03666 102 117 122 1752393037
-0.633059 -0.925241 -3.04377 102 117 122 1752393037
-0.634546 -0.911143 -3.05092 102 117 122 1752393037
-0.63604 -0.896979 -3.0581 102 117 122 1752393037
-0.63754 -0.882748 -3.06532 102 117 122 1752393037
-0.639048 -0.86845 -3.07257 102 117 122 1752393037
-0.640563 -0.854084 -3.07985 102 117 122 1752393037
-0.642086 -0.83965 -3.08717 102 117 122 1752393037
-0.643615 -0.825147 -3.09452 102 117 122 1752393037
-0.645152 -0.810575 -3.10191 102 117 122 1752393037
-0.646696 -0.795933 -3.10934 102 117 122 1752393037
-0.648247 -0.781221 -3.1168 102 117 122 1752393037
-0.649806 -0.766438 -3.12429 102 117 122 1752393037
-0.651373 -0.751584 -3.13182 102 117 122 1752393037
-0.652947 -0.736658 -3.13939 102 117 122 1752393037
-0.654529 -0.72166 -3.147 102 117 122 1752393037
-0.656118 -0.706589 -3.15464 102 117 122 1752393037
-0.657715 -0.691444 -3.16232 102 117 122 1752393037
-0.65932 -0.676226 -3.17003 102 117 122 1752393037
-0.660933 -0.660933 -3.17779 102 117 122 1752393037
-0.662553 -0.645565 -3.18558 102 117 122 1752393037
-0.664182 -0.630121 -3.19341 102 117 122 1752393037
-0.665819 -0.614602 -3.20128 102 117 122 1752393037
-0.667463 -0.599006 -3.20919 102 117 122 1752393037
-0.669116 -0.583332 -3.21713 102 117 122 1752393037
-0.670777 -0.567581 -3.22512 102 117 122 1752393037
-0.672447 -0.551751 -3.23315 102 117 122 1752393037
-0.674124 -0.535842 -3.24121 102 117 122 1752393037
-0.675811 -0.519854 -3.24932 102 117 122 1752393037
-0.677505 -0.503786 -3.25747 102 117 122 1752393037
-0.679208 -0.487637 -3.26566 102 117 122 1752393037
-0.68092 -0.471406 -3.27389 102 117 122 1752393037
-0.68264 -0.455093 -3.28216 102 117 122 1752393037
-0.684369 -0.438698 -3.29047 102 117 122 1752393037
-0.686107 -0.42222 -3.29883 102 117 122 1752393037
-0.687854 -0.405657 -3.30722 102 117 122 1752393037
-0.689609 -0.38901 -3.31567 102 117 122 1752393037
-0.691374 -0.372278 -3.32415 102 117 122 1752393037
-0.680843 -0.34915 -3.27351 177 105 42 1752393037
-0.673155 -0.327948 -3.23656 177 105 42 1752393037
-0.674891 -0.311488 -3.2449 177 105 42 1752393037
-0.676636 -0.294944 -3.25329 177 105 42 1752393037
-0.67839 -0.278314 -3.26172 177 105 42 1752393037
-0.680153 -0.261597 -3.2702 177 105 42 1752393037
-0.681925 -0.244794 -3.27872 177 105 42 1752393037
-0.683706 -0.227902 -3.28728 177 105 42 1752393037
-0.685497 -0.210922 -3.29589 177 105 42 1752393037
-0.68654 -0.19364 -3.30091 255 255 255 1752393037
-0.673892 -0.172793 -3.2401 255 255 255 1752393037
-0.671667 -0.155 -3.2294 204 182 121 1752393037
-0.673445 -0.138143 -3.23795 204 182 121 1752393037
-0.675232 -0.121195 -3.24654 204 182 121 1752393037
-0.677029 -0.104158 -3.25518 204 182 121 1752393037
-0.678835 -0.08703 -3.26386 204 182 121 1752393037
-0.680651 -0.06981 -3.27259 204 182 121 1752393037
-0.682477 -0.052498 -3.28137 204 182 121 1752393037
-0.684312 -0.035093 -3.2902 204 182 121 1752393037
-0.686158 -0.017594 -3.29907 204 182 121 1752393037
-0.688013 0 -3.30799 204 182 121 1752393037
-0.689879 0.017689 -3.31696 204 182 121 1752393037
-0.691754 0.035475 -3.32598 204 182 121 1752393037
-0.69364 0.053357 -3.33505 204 182 121 1752393037
-0.695536 0.071337 -3.34416 204 182 121 1752393037
-0.697443 0.089416 -3.35333 204 182 121 1752393037
-0.69936 0.107594 -3.36255 204 182 121 1752393037
-0.701287 0.125872 -3.37181 204 182 121 1752393037
-0.703226 0.144251 -3.38113 204 182 121 1752393037
-0.705175 0.162733 -3.39051 204 182 121 1752393037
-0.707134 0.181317 -3.39993 204 182 121 1752393037
-0.709105 0.200004 -3.4094 204 182 121 1752393037
-0.711087 0.218796 -3.41893 204 182 121 1752393037
-0.71308 0.237693 -3.42851 204 182 121 1752393037
-0.715084 0.256697 -3.43815 204 182 121 1752393037
-0.717099 0.275807 -3.44784 204 182 121 1752393037
-0.719126 0.295026 -3.45758 204 182 121 1752393037
-0.721164 0.314354 -3.46738 204 182 121 1752393037
-0.723214 0.333791 -3.47724 204 182 121 1752393037
-0.725276 0.353339 -3.48715 204 182 121 1752393037
-0.727349 0.372999 -3.49712 204 182 121 1752393037
-0.729434 0.392772 -3.50714 204 182 121 1752393037
-0.731531 0.412659 -3.51723 204 182 121 1752393037
-0.733641 0.43266 -3.52737 204 182 121 1752393037
-0.735762 0.452777 -3.53757 204 182 121 1752393037
-0.737896 0.47301 -3.54783 204 182 121 1752393037
-0.740042 0.493361 -3.55815 204 182 121 1752393037
-0.742201 0.513831 -3.56853 204 182 121 1752393037
-0.744372 0.534421 -3.57897 204 182 121 1752393037
-0.746556 0.555132 -3.58947 204 182 121 1752393037
-0.748753 0.575964 -3.60003 204 182 121 1752393037
-0.750963 0.596919 -3.61066 204 182 121 1752393037
-0.753186 0.617999 -3.62135 204 182 121 1752393037
-0.755422 0.639203 -3.6321 204 182 121 1752393037
-0.757672 0.660534 -3.64291 204 182 121 1752393037
-0.759935 0.681993 -3.65379 204 182 121 1752393037
-0.762211 0.70358 -3.66474 204 182 121 1752393037
-0.764502 0.725296 -3.67575 204 182 121 1752393037
-0.766805 0.747144 -3.68683 204 182 121 1752393037
-0.596922 -1.17044 -2.9263 102 117 122 1752393037
-0.59827 -1.15744 -2.9329 102 117 122 1752393037
-0.599624 -1.14438 -2.93954 102 117 122 1752393037
-0.600984 -1.13126 -2.94621 102 117 122 1752393037
-0.60235 -1.11809 -2.9529 102 117 122 1752393037
-0.603722 -1.10485 -2.95963 102 117 122 1752393037
-0.6051 -1.09155 -2.96639 102 117 122 1752393037
-0.606485 -1.0782 -2.97318 102 117 122 1752393037
-0.607876 -1.06478 -2.98 102 117 122 1752393037
-0.609274 -1.0513 -2.98685 102 117 122 1752393037
-0.610678 -1.03775 -2.99373 102 117 122 1752393037
-0.612089 -1.02415 -3.00065 102 117 122 1752393037
-0.613506 -1.01048 -3.0076 102 117 122 1752393037
-0.614929 -0.996748 -3.01457 102 117 122 1752393037
-0.616359 -0.982952 -3.02158 102 117 122 1752393037
-0.617796 -0.969092 -3.02863 102 117 122 1752393037
-0.61924 -0.955167 -3.03571 102 117 122 1752393037
-0.62069 -0.941177 -3.04282 102 117 122 1752393037
-0.622148 -0.927122 -3.04996 102 117 122 1752393037
-0.623612 -0.913 -3.05714 102 117 122 1752393037
-0.625082 -0.898811 -3.06435 102 117 122 1752393037
-0.62656 -0.884556 -3.07159 102 117 122 1752393037
-0.628045 -0.870233 -3.07887 102 117 122 1752393037
-0.629537 -0.855842 -3.08619 102 117 122 1752393037
-0.631036 -0.841382 -3.09354 102 117 122 1752393037
-0.632543 -0.826853 -3.10092 102 117 122 1752393037
-0.634056 -0.812255 -3.10834 102 117 122 1752393037
-0.635577 -0.797587 -3.11579 102 117 122 1752393037
-0.637105 -0.782848 -3.12329 102 117 122 1752393037
-0.63864 -0.768038 -3.13081 102 117 122 1752393037
-0.640183 -0.753156 -3.13838 102 117 122 1752393037
-0.641733 -0.738203 -3.14598 102 117 122 1752393037
-0.643291 -0.723177 -3.15361 102 117 122 1752393037
-0.644856 -0.708078 -3.16129 102 117 122 1752393037
-0.646429 -0.692905 -3.169 102 117 122 1752393037
-0.64801 -0.677658 -3.17675 102 117 122 1752393037
-0.649599 -0.662336 -3.18453 102 117 122 1752393037
-0.651195 -0.646939 -3.19236 102 117 122 1752393037
-0.652799 -0.631466 -3.20022 102 117 122 1752393037
-0.654411 -0.615916 -3.20813 102 117 122 1752393037
-0.656031 -0.60029 -3.21607 102 117 122 1752393037
-0.657659 -0.584586 -3.22405 102 117 122 1752393037
-0.659295 -0.568804 -3.23207 102 117 122 1752393037
-0.66094 -0.552943 -3.24013 102 117 122 1752393037
-0.662592 -0.537003 -3.24823 102 117 122 1752393037
-0.664253 -0.520983 -3.25637 102 117 122 1752393037
-0.665922 -0.504882 -3.26456 102 117 122 1752393037
-0.6676 -0.488701 -3.27278 102 117 122 1752393037
-0.669286 -0.472437 -3.28105 102 117 122 1752393037
-0.670981 -0.456091 -3.28936 102 117 122 1752393037
-0.672684 -0.439663 -3.2977 102 117 122 1752393037
-0.674396 -0.42315 -3.3061 102 117 122 1752393037
-0.676116 -0.406554 -3.31453 102 117 122 1752393037
-0.677846 -0.389872 -3.32301 102 117 122 1752393037
-0.679584 -0.373105 -3.33153 102 117 122 1752393037
-0.673583 -0.3522 -3.30211 177 105 42 1752393037
-0.661684 -0.32868 -3.24378 177 105 42 1752393037
-0.663394 -0.312185 -3.25216 177 105 42 1752393037
-0.665113 -0.295606 -3.26059 177 105 42 1752393037
-0.666841 -0.27894 -3.26906 177 105 42 1752393037
-0.668577 -0.262187 -3.27757 177 105 42 1752393037
-0.670323 -0.245347 -3.28613 177 105 42 1752393037
-0.672078 -0.228419 -3.29474 177 105 42 1752393037
-0.673843 -0.211402 -3.30339 177 105 42 1752393037
-0.675616 -0.194295 -3.31208 177 105 42 1752393037
-0.665636 -0.174022 -3.26315 255 255 255 1752393037
-0.66026 -0.155355 -3.2368 204 182 121 1752393037
-0.662012 -0.13846 -3.24539 204 182 121 1752393037
-0.663772 -0.121475 -3.25402 204 182 121 1752393037
-0.665543 -0.104399 -3.2627 204 182 121 1752393037
-0.667322 -0.087232 -3.27142 204 182 121 1752393037
-0.669112 -0.069972 -3.28019 204 182 121 1752393037
-0.670911 -0.05262 -3.28901 204 182 121 1752393037
-0.672719 -0.035175 -3.29788 204 182 121 1752393037
-0.674538 -0.017635 -3.30679 204 182 121 1752393037
-0.676366 0 -3.31576 204 182 121 1752393037
-0.678204 0.017731 -3.32477 204 182 121 1752393037
-0.680052 0.035558 -3.33383 204 182 121 1752393037
-0.681911 0.053483 -3.34294 204 182 121 1752393037
-0.683779 0.071506 -3.3521 204 182 121 1752393037
-0.685658 0.089629 -3.36131 204 182 121 1752393037
-0.687547 0.107851 -3.37057 204 182 121 1752393037
-0.689447 0.126173 -3.37988 204 182 121 1752393037
-0.691357 0.144598 -3.38925 204 182 121 1752393037
-0.693278 0.163124 -3.39866 204 182 121 1752393037
-0.695209 0.181754 -3.40813 204 182 121 1752393037
-0.697151 0.200488 -3.41765 204 182 121 1752393037
-0.699104 0.219327 -3.42723 204 182 121 1752393037
-0.701068 0.238272 -3.43686 204 182 121 1752393037
-0.703043 0.257323 -3.44654 204 182 121 1752393037
-0.70503 0.276482 -3.45627 204 182 121 1752393037
-0.707027 0.29575 -3.46607 204 182 121 1752393037
-0.709036 0.315127 -3.47591 204 182 121 1752393037
-0.711057 0.334615 -3.48582 204 182 121 1752393037
-0.713088 0.354214 -3.49578 204 182 121 1752393037
-0.715132 0.373925 -3.5058 204 182 121 1752393037
-0.717187 0.39375 -3.51587 204 182 121 1752393037
-0.719254 0.413689 -3.52601 204 182 121 1752393037
-0.721333 0.433743 -3.5362 204 182 121 1752393037
-0.723425 0.453913 -3.54645 204 182 121 1752393037
-0.725528 0.474201 -3.55676 204 182 121 1752393037
-0.727643 0.494607 -3.56713 204 182 121 1752393037
-0.729771 0.515133 -3.57756 204 182 121 1752393037
-0.731912 0.535778 -3.58806 204 182 121 1752393037
-0.734065 0.556546 -3.59861 204 182 121 1752393037
-0.73623 0.577436 -3.60923 204 182 121 1752393037
-0.738409 0.598449 -3.61991 204 182 121 1752393037
-0.7406 0.619587 -3.63065 204 182 121 1752393037
-0.742805 0.640851 -3.64146 204 182 121 1752393037
-0.745023 0.662242 -3.65233 204 182 121 1752393037
-0.747254 0.683761 -3.66327 204 182 121 1752393037
-0.749498 0.70541 -3.67427 204 182 121 1752393037
-0.751756 0.727188 -3.68534 204 182 121 1752393037
-0.754027 0.749099 -3.69648 204 182 121 1752393037
-0.586362 -1.17272 -2.93202 102 117 122 1752393037
-0.587688 -1.15971 -2.93865 102 117 122 1752393037
-0.589021 -1.14663 -2.94531 102 117 122 1752393037
-0.590359 -1.13349 -2.95201 102 117 122 1752393037
-0.591704 -1.12029 -2.95873 102 117 122 1752393037
-0.593054 -1.10704 -2.96548 102 117 122 1752393037
-0.594411 -1.09372 -2.97227 102 117 122 1752393037
-0.595774 -1.08034 -2.97908 102 117 122 1752393037
-0.597144 -1.0669 -2.98593 102 117 122 1752393037
-0.598519 -1.05339 -2.99281 102 117 122 1752393037
-0.599901 -1.03983 -2.99972 102 117 122 1752393037
-0.60129 -1.0262 -3.00666 102 117 122 1752393037
-0.602684 -1.01251 -3.01364 102 117 122 1752393037
-0.604086 -0.998755 -3.02064 102 117 122 1752393037
-0.605494 -0.984936 -3.02768 102 117 122 1752393037
-0.606908 -0.971053 -3.03476 102 117 122 1752393037
-0.608329 -0.957104 -3.04186 102 117 122 1752393037
-0.609757 -0.94309 -3.049 102 117 122 1752393037
-0.611191 -0.929011 -3.05617 102 117 122 1752393037
-0.612632 -0.914864 -3.06338 102 117 122 1752393037
-0.61408 -0.900651 -3.07062 102 117 122 1752393037
-0.615535 -0.886371 -3.0779 102 117 122 1752393037
-0.616997 -0.872023 -3.08521 102 117 122 1752393037
-0.618466 -0.857606 -3.09255 102 117 122 1752393037
-0.619942 -0.843121 -3.09993 102 117 122 1752393037
-0.621424 -0.828566 -3.10734 102 117 122 1752393037
-0.622914 -0.813941 -3.11479 102 117 122 1752393037
-0.624411 -0.799247 -3.12228 102 117 122 1752393037
-0.625916 -0.784481 -3.1298 102 117 122 1752393037
-0.627427 -0.769644 -3.13736 102 117 122 1752393037
-0.628946 -0.754735 -3.14495 102 117 122 1752393037
-0.630472 -0.739754 -3.15259 102 117 122 1752393037
-0.632006 -0.7247 -3.16026 102 117 122 1752393037
-0.633547 -0.709573 -3.16796 102 117 122 1752393037
-0.635096 -0.694372 -3.17571 102 117 122 1752393037
-0.636652 -0.679096 -3.18349 102 117 122 1752393037
-0.638216 -0.663745 -3.19131 102 117 122 1752393037
-0.639788 -0.648318 -3.19917 102 117 122 1752393037
-0.641367 -0.632816 -3.20707 102 117 122 1752393037
-0.642954 -0.617236 -3.215 102 117 122 1752393037
-0.64455 -0.60158 -3.22298 102 117 122 1752393037
-0.646152 -0.585845 -3.23099 102 117 122 1752393037
-0.647764 -0.570032 -3.23905 102 117 122 1752393037
-0.649383 -0.55414 -3.24714 102 117 122 1752393037
-0.65101 -0.538168 -3.25528 102 117 122 1752393037
-0.652645 -0.522116 -3.26346 102 117 122 1752393037
-0.654289 -0.505983 -3.27168 102 117 122 1752393037
-0.655941 -0.489769 -3.27994 102 117 122 1752393037
-0.657601 -0.473473 -3.28824 102 117 122 1752393037
-0.65927 -0.457094 -3.29658 102 117 122 1752393037
-0.660947 -0.440631 -3.30497 102 117 122 1752393037
-0.662633 -0.424085 -3.3134 102 117 122 1752393037
-0.664327 -0.407454 -3.32187 102 117 122 1752393037
-0.66603 -0.390738 -3.33039 102 117 122 1752393037
-0.667742 -0.373935 -3.33895 102 117 122 1752393037
-0.666195 -0.355304 -3.33121 177 105 42 1752393037
-0.651229 -0.329956 -3.25638 177 105 42 1752393037
-0.651845 -0.312886 -3.25946 177 105 42 1752393037
-0.653538 -0.29627 -3.26792 177 105 42 1752393037
-0.655239 -0.279569 -3.27643 177 105 42 1752393037
-0.65695 -0.26278 -3.28498 177 105 42 1752393037
-0.658669 -0.245903 -3.29358 177 105 42 1752393037
-0.660398 -0.228938 -3.30222 177 105 42 1752393037
-0.662135 -0.211883 -3.31091 177 105 42 1752393037
-0.663882 -0.194739 -3.31965 177 105 42 1752393037
-0.657262 -0.17527 -3.28654 255 255 255 1752393037
-0.6488 -0.155712 -3.24423 204 182 121 1752393037
-0.650525 -0.138779 -3.25286 204 182 121 1752393037
-0.65226 -0.121755 -3.26153 204 182 121 1752393037
-0.654003 -0.104641 -3.27025 204 182 121 1752393037
-0.655756 -0.087434 -3.27902 204 182 121 1752393037
-0.657519 -0.070135 -3.28783 204 182 121 1752393037
-0.65929 -0.052743 -3.29669 204 182 121 1752393037
-0.661072 -0.035257 -3.3056 204 182 121 1752393037
-0.662863 -0.017676 -3.31455 204 182 121 1752393037
-0.664664 0 -3.32356 204 182 121 1752393037
-0.666475 0.017773 -3.33261 204 182 121 1752393037
-0.668295 0.035642 -3.34172 204 182 121 1752393037
-0.670126 0.05361 -3.35087 204 182 121 1752393037
-0.671966 0.071676 -3.36007 204 182 121 1752393037
-0.673817 0.089842 -3.36933 204 182 121 1752393037
-0.675678 0.108109 -3.37863 204 182 121 1752393037
-0.677549 0.126476 -3.38799 204 182 121 1752393037
-0.679431 0.144945 -3.3974 204 182 121 1752393037
-0.681323 0.163518 -3.40686 204 182 121 1752393037
-0.683226 0.182194 -3.41637 204 182 121 1752393037
-0.685139 0.200974 -3.42594 204 182 121 1752393037
-0.687063 0.21986 -3.43556 204 182 121 1752393037
-0.688998 0.238853 -3.44524 204 182 121 1752393037
-0.690944 0.257952 -3.45497 204 182 121 1752393037
-0.692901 0.27716 -3.46475 204 182 121 1752393037
-0.694869 0.296477 -3.47459 204 182 121 1752393037
-0.696848 0.315904 -3.48449 204 182 121 1752393037
-0.698839 0.335443 -3.49444 204 182 121 1752393037
-0.700841 0.355093 -3.50445 204 182 121 1752393037
-0.702854 0.374856 -3.51452 204 182 121 1752393037
-0.704879 0.394732 -3.52465 204 182 121 1752393037
-0.706916 0.414724 -3.53483 204 182 121 1752393037
-0.708964 0.434832 -3.54507 204 182 121 1752393037
-0.711025 0.455056 -3.55538 204 182 121 1752393037
-0.713097 0.475398 -3.56574 204 182 121 1752393037
-0.715182 0.495859 -3.57616 204 182 121 1752393037
-0.717279 0.516441 -3.58665 204 182 121 1752393037
-0.719388 0.537143 -3.59719 204 182 121 1752393037
-0.721509 0.557967 -3.6078 204 182 121 1752393037
-0.723643 0.578915 -3.61847 204 182 121 1752393037
-0.72579 0.599987 -3.62921 204 182 121 1752393037
-0.72795 0.621184 -3.64001 204 182 121 1752393037
-0.730122 0.642508 -3.65087 204 182 121 1752393037
-0.732308 0.663959 -3.6618 204 182 121 1752393037
-0.734506 0.685539 -3.67279 204 182 121 1752393037
-0.736718 0.707249 -3.68385 204 182 121 1752393037
-0.738943 0.729091 -3.69498 204 182 121 1752393037
-0.57576 -1.17502 -2.93776 102 117 122 1752393037
-0.577065 -1.16198 -2.94442 102 117 122 1752393037
-0.578376 -1.14888 -2.95111 102 117 122 1752393037
-0.579693 -1.13572 -2.95783 102 117 122 1752393037
-0.581015 -1.12251 -2.96458 102 117 122 1752393037
-0.582344 -1.10923 -2.97136 102 117 122 1752393037
-0.583679 -1.09589 -2.97817 102 117 122 1752393037
-0.58502 -1.08249 -2.98501 102 117 122 1752393037
-0.586368 -1.06902 -2.99188 102 117 122 1752393037
-0.587721 -1.0555 -2.99879 102 117 122 1752393037
-0.589081 -1.04191 -3.00573 102 117 122 1752393037
-0.590447 -1.02826 -3.0127 102 117 122 1752393037
-0.59182 -1.01455 -3.0197 102 117 122 1752393037
-0.593198 -1.00077 -3.02674 102 117 122 1752393037
-0.594584 -0.986928 -3.03381 102 117 122 1752393037
-0.595975 -0.973021 -3.04091 102 117 122 1752393037
-0.597374 -0.959049 -3.04804 102 117 122 1752393037
-0.598779 -0.945011 -3.05521 102 117 122 1752393037
-0.60019 -0.930907 -3.06241 102 117 122 1752393037
-0.601608 -0.916736 -3.06965 102 117 122 1752393037
-0.603033 -0.902499 -3.07692 102 117 122 1752393037
-0.604465 -0.888193 -3.08422 102 117 122 1752393037
-0.605903 -0.87382 -3.09156 102 117 122 1752393037
-0.607349 -0.859378 -3.09894 102 117 122 1752393037
-0.608801 -0.844866 -3.10635 102 117 122 1752393037
-0.61026 -0.830286 -3.11379 102 117 122 1752393037
-0.611726 -0.815635 -3.12127 102 117 122 1752393037
-0.613199 -0.800914 -3.12879 102 117 122 1752393037
-0.61468 -0.786121 -3.13634 102 117 122 1752393037
-0.616167 -0.771257 -3.14394 102 117 122 1752393037
-0.617662 -0.756321 -3.15156 102 117 122 1752393037
-0.619164 -0.741312 -3.15923 102 117 122 1752393037
-0.620674 -0.72623 -3.16693 102 117 122 1752393037
-0.62219 -0.711075 -3.17467 102 117 122 1752393037
-0.623715 -0.695845 -3.18244 102 117 122 1752393037
-0.625246 -0.68054 -3.19026 102 117 122 1752393037
-0.626785 -0.66516 -3.19811 102 117 122 1752393037
-0.628332 -0.649704 -3.20601 102 117 122 1752393037
-0.629886 -0.634171 -3.21394 102 117 122 1752393037
-0.631449 -0.618562 -3.22191 102 117 122 1752393037
-0.633019 -0.602875 -3.22992 102 117 122 1752393037
-0.634596 -0.58711 -3.23797 102 117 122 1752393037
-0.636182 -0.571265 -3.24606 102 117 122 1752393037
-0.637775 -0.555342 -3.25419 102 117 122 1752393037
-0.639377 -0.539339 -3.26236 102 117 122 1752393037
-0.640987 -0.523255 -3.27057 102 117 122 1752393037
-0.642604 -0.507089 -3.27883 102 117 122 1752393037
-0.64423 -0.490842 -3.28713 102 117 122 1752393037
-0.645865 -0.474513 -3.29546 102 117 122 1752393037
-0.647507 -0.4581 -3.30384 102 117 122 1752393037
-0.649158 -0.441604 -3.31227 102 117 122 1752393037
-0.650817 -0.425024 -3.32073 102 117 122 1752393037
-0.652485 -0.408358 -3.32924 102 117 122 1752393037
-0.654162 -0.391607 -3.3378 102 117 122 1752393037
-0.655847 -0.37477 -3.3464 102 117 122 1752393037
-0.65754 -0.357845 -3.35504 102 117 122 1752393037
-0.64375 -0.332823 -3.28467 177 105 42 1752393037
-0.640244 -0.313589 -3.26679 177 105 42 1752393037
-0.641911 -0.296938 -3.27529 177 105 42 1752393037
-0.643586 -0.280201 -3.28383 177 105 42 1752393037
-0.64527 -0.263375 -3.29243 177 105 42 1752393037
-0.646962 -0.246462 -3.30106 177 105 42 1752393037
-0.648664 -0.229459 -3.30975 177 105 42 1752393037
-0.650374 -0.212367 -3.31847 177 105 42 1752393037
-0.652094 -0.195185 -3.32725 177 105 42 1752393037
-0.648766 -0.176535 -3.31027 255 255 255 1752393037
-0.637288 -0.156071 -3.2517 204 182 121 1752393037
-0.638986 -0.139099 -3.26037 204 182 121 1752393037
-0.640694 -0.122037 -3.26908 204 182 121 1752393037
-0.642411 -0.104883 -3.27784 204 182 121 1752393037
-0.644136 -0.087638 -3.28664 204 182 121 1752393037
-0.645872 -0.070299 -3.2955 204 182 121 1752393037
-0.647616 -0.052867 -3.3044 204 182 121 1752393037
-0.64937 -0.03534 -3.31335 204 182 121 1752393037
-0.651134 -0.017718 -3.32235 204 182 121 1752393037
-0.652907 0 -3.33139 204 182 121 1752393037
-0.65469 0.017815 -3.34049 204 182 121 1752393037
-0.656482 0.035727 -3.34964 204 182 121 1752393037
-0.658285 0.053738 -3.35883 204 182 121 1752393037
-0.660097 0.071847 -3.36808 204 182 121 1752393037
-0.66192 0.090057 -3.37738 204 182 121 1752393037
-0.663752 0.108368 -3.38673 204 182 121 1752393037
-0.665595 0.12678 -3.39613 204 182 121 1752393037
-0.667448 0.145295 -3.40559 204 182 121 1752393037
-0.669311 0.163913 -3.4151 204 182 121 1752393037
-0.671184 0.182635 -3.42465 204 182 121 1752393037
-0.673069 0.201463 -3.43427 204 182 121 1752393037
-0.674964 0.220396 -3.44394 204 182 121 1752393037
-0.676869 0.239437 -3.45366 204 182 121 1752393037
-0.678785 0.258585 -3.46344 204 182 121 1752393037
-0.680713 0.277842 -3.47327 204 182 121 1752393037
-0.682651 0.297208 -3.48316 204 182 121 1752393037
-0.6846 0.316686 -3.49311 204 182 121 1752393037
-0.68656 0.336274 -3.50311 204 182 121 1752393037
-0.688532 0.355976 -3.51317 204 182 121 1752393037
-0.690515 0.37579 -3.52329 204 182 121 1752393037
-0.692509 0.39572 -3.53346 204 182 121 1752393037
-0.694516 0.415764 -3.5437 204 182 121 1752393037
-0.696533 0.435926 -3.55399 204 182 121 1752393037
-0.698563 0.456204 -3.56435 204 182 121 1752393037
-0.700604 0.476601 -3.57476 204 182 121 1752393037
-0.702657 0.497118 -3.58524 204 182 121 1752393037
-0.704722 0.517755 -3.59578 204 182 121 1752393037
-0.7068 0.538514 -3.60638 204 182 121 1752393037
-0.70889 0.559396 -3.61704 204 182 121 1752393037
-0.710992 0.580401 -3.62777 204 182 121 1752393037
-0.713107 0.601532 -3.63856 204 182 121 1752393037
-0.715234 0.622789 -3.64941 204 182 121 1752393037
-0.717374 0.644172 -3.66033 204 182 121 1752393037
-0.719527 0.665685 -3.67132 204 182 121 1752393037
-0.721693 0.687326 -3.68237 204 182 121 1752393037
-0.723871 0.709098 -3.69349 204 182 121 1752393037
-0.726063 0.731003 -3.70467 204 182 121 1752393037
-0.565116 -1.17733 -2.94353 102 117 122 1752393037
-0.5664 -1.16427 -2.95021 102 117 122 1752393037
-0.567689 -1.15115 -2.95692 102 117 122 1752393037
-0.568984 -1.13797 -2.96367 102 117 122 1752393037
-0.570285 -1.12473 -2.97045 102 117 122 1752393037
-0.571592 -1.11143 -2.97725 102 117 122 1752393037
-0.572905 -1.09807 -2.98409 102 117 122 1752393037
-0.574224 -1.08465 -2.99096 102 117 122 1752393037
-0.575549 -1.07116 -2.99786 102 117 122 1752393037
-0.57688 -1.05761 -3.0048 102 117 122 1752393037
-0.578217 -1.044 -3.01176 102 117 122 1752393037
-0.579561 -1.03033 -3.01876 102 117 122 1752393037
-0.580911 -1.01659 -3.02579 102 117 122 1752393037
-0.582267 -1.00279 -3.03286 102 117 122 1752393037
-0.58363 -0.988928 -3.03995 102 117 122 1752393037
-0.584998 -0.974997 -3.04709 102 117 122 1752393037
-0.586374 -0.961002 -3.05425 102 117 122 1752393037
-0.587756 -0.94694 -3.06145 102 117 122 1752393037
-0.589144 -0.932811 -3.06868 102 117 122 1752393037
-0.590539 -0.918616 -3.07594 102 117 122 1752393037
-0.59194 -0.904354 -3.08324 102 117 122 1752393037
-0.593349 -0.890023 -3.09058 102 117 122 1752393037
-0.594764 -0.875624 -3.09795 102 117 122 1752393037
-0.596185 -0.861157 -3.10535 102 117 122 1752393037
-0.597614 -0.84662 -3.11279 102 117 122 1752393037
-0.599049 -0.832013 -3.12027 102 117 122 1752393037
-0.600491 -0.817335 -3.12778 102 117 122 1752393037
-0.601941 -0.802588 -3.13533 102 117 122 1752393037
-0.603397 -0.787768 -3.14292 102 117 122 1752393037
-0.60486 -0.772877 -3.15054 102 117 122 1752393037
-0.606331 -0.757913 -3.1582 102 117 122 1752393037
-0.607808 -0.742877 -3.16589 102 117 122 1752393037
-0.609293 -0.727767 -3.17363 102 117 122 1752393037
-0.610785 -0.712583 -3.1814 102 117 122 1752393037
-0.612284 -0.697324 -3.18921 102 117 122 1752393037
-0.613791 -0.68199 -3.19706 102 117 122 1752393037
-0.615305 -0.666581 -3.20495 102 117 122 1752393037
-0.616827 -0.651095 -3.21287 102 117 122 1752393037
-0.618356 -0.635533 -3.22084 102 117 122 1752393037
-0.619893 -0.619893 -3.22884 102 117 122 1752393037
-0.621438 -0.604176 -3.23689 102 117 122 1752393037
-0.62299 -0.58838 -3.24497 102 117 122 1752393037
-0.62455 -0.572504 -3.2531 102 117 122 1752393037
-0.626118 -0.556549 -3.26126 102 117 122 1752393037
-0.627694 -0.540514 -3.26947 102 117 122 1752393037
-0.629277 -0.524398 -3.27772 102 117 122 1752393037
-0.630869 -0.5082 -3.28601 102 117 122 1752393037
-0.632469 -0.49192 -3.29434 102 117 122 1752393037
-0.634077 -0.475558 -3.30272 102 117 122 1752393037
-0.635693 -0.459111 -3.31114 102 117 122 1752393037
-0.637317 -0.442581 -3.3196 102 117 122 1752393037
-0.63895 -0.425967 -3.3281 102 117 122 1752393037
-0.640591 -0.409266 -3.33665 102 117 122 1752393037
-0.64224 -0.39248 -3.34524 102 117 122 1752393037
-0.643898 -0.375607 -3.35388 102 117 122 1752393037
-0.645565 -0.358647 -3.36256 102 117 122 1752393037
-0.63614 -0.335741 -3.31347 177 105 42 1752393037
-0.628591 -0.314296 -3.27415 177 105 42 1752393037
-0.630231 -0.297609 -3.28269 177 105 42 1752393037
-0.631879 -0.280835 -3.29127 177 105 42 1752393037
-0.633536 -0.263974 -3.2999 177 105 42 1752393037
-0.635202 -0.247023 -3.30858 177 105 42 1752393037
-0.636876 -0.229983 -3.3173 177 105 42 1752393037
-0.63856 -0.212853 -3.32607 177 105 42 1752393037
-0.640252 -0.195633 -3.33488 177 105 42 1752393037
-0.640147 -0.177819 -3.33434 255 255 255 1752393037
-0.628236 -0.157059 -3.2723 255 255 255 1752393037
-0.627394 -0.139421 -3.26791 204 182 121 1752393037
-0.629074 -0.12232 -3.27666 204 182 121 1752393037
-0.630764 -0.105127 -3.28546 204 182 121 1752393037
-0.632462 -0.087842 -3.29431 204 182 121 1752393037
-0.63417 -0.070463 -3.30321 204 182 121 1752393037
-0.635887 -0.052991 -3.31215 204 182 121 1752393037
-0.637613 -0.035423 -3.32114 204 182 121 1752393037
-0.639349 -0.01776 -3.33018 204 182 121 1752393037
-0.641094 0 -3.33927 204 182 121 1752393037
-0.642849 0.017857 -3.34841 204 182 121 1752393037
-0.644613 0.035812 -3.3576 204 182 121 1752393037
-0.646387 0.053866 -3.36684 204 182 121 1752393037
-0.648171 0.072019 -3.37613 204 182 121 1752393037
-0.649965 0.090273 -3.38548 204 182 121 1752393037
-0.651769 0.108628 -3.39487 204 182 121 1752393037
-0.653582 0.127085 -3.40432 204 182 121 1752393037
-0.655406 0.145646 -3.41382 204 182 121 1752393037
-0.65724 0.16431 -3.42337 204 182 121 1752393037
-0.659085 0.183079 -3.43298 204 182 121 1752393037
-0.66094 0.201954 -3.44264 204 182 121 1752393037
-0.662805 0.220935 -3.45235 204 182 121 1752393037
-0.664681 0.240024 -3.46213 204 182 121 1752393037
-0.666567 0.25922 -3.47195 204 182 121 1752393037
-0.668464 0.278527 -3.48183 204 182 121 1752393037
-0.670372 0.297943 -3.49177 204 182 121 1752393037
-0.672291 0.317471 -3.50177 204 182 121 1752393037
-0.674221 0.33711 -3.51182 204 182 121 1752393037
-0.676162 0.356863 -3.52193 204 182 121 1752393037
-0.678114 0.37673 -3.5321 204 182 121 1752393037
-0.680078 0.396712 -3.54232 204 182 121 1752393037
-0.682053 0.41681 -3.55261 204 182 121 1752393037
-0.684039 0.437025 -3.56296 204 182 121 1752393037
-0.686037 0.457358 -3.57336 204 182 121 1752393037
-0.688047 0.47781 -3.58383 204 182 121 1752393037
-0.690069 0.498383 -3.59436 204 182 121 1752393037
-0.692102 0.519077 -3.60496 204 182 121 1752393037
-0.694147 0.539892 -3.61561 204 182 121 1752393037
-0.696205 0.560832 -3.62633 204 182 121 1752393037
-0.698275 0.581896 -3.63711 204 182 121 1752393037
-0.700357 0.603085 -3.64795 204 182 121 1752393037
-0.702452 0.624402 -3.65886 204 182 121 1752393037
-0.704559 0.645846 -3.66984 204 182 121 1752393037
-0.706679 0.667419 -3.68088 204 182 121 1752393037
-0.708812 0.689123 -3.69199 204 182 121 1752393037
-0.710957 0.710957 -3.70317 204 182 121 1752393037
-0.713116 0.732925 -3.71441 204 182 121 1752393037
-0.554431 -1.17964 -2.94931 102 117 122 1752393037
-0.555693 -1.16656 -2.95602 102 117 122 1752393037
-0.55696 -1.15342 -2.96276 102 117 122 1752393037
-0.558233 -1.14022 -2.96954 102 117 122 1752393037
-0.559512 -1.12696 -2.97634 102 117 122 1752393037
-0.560797 -1.11364 -2.98317 102 117 122 1752393037
-0.562088 -1.10026 -2.99004 102 117 122 1752393037
-0.563384 -1.08681 -2.99694 102 117 122 1752393037
-0.564687 -1.07331 -3.00387 102 117 122 1752393037
-0.565996 -1.05974 -3.01083 102 117 122 1752393037
-0.56731 -1.0461 -3.01782 102 117 122 1752393037
-0.568631 -1.03241 -3.02485 102 117 122 1752393037
-0.569958 -1.01865 -3.03191 102 117 122 1752393037
-0.571292 -1.00482 -3.039 102 117 122 1752393037
-0.572631 -0.990936 -3.04613 102 117 122 1752393037
-0.573977 -0.976982 -3.05329 102 117 122 1752393037
-0.575329 -0.962962 -3.06048 102 117 122 1752393037
-0.576688 -0.948876 -3.06771 102 117 122 1752393037
-0.578053 -0.934724 -3.07497 102 117 122 1752393037
-0.579424 -0.920504 -3.08226 102 117 122 1752393037
-0.580802 -0.906216 -3.08959 102 117 122 1752393037
-0.582187 -0.89186 -3.09696 102 117 122 1752393037
-0.583578 -0.877436 -3.10436 102 117 122 1752393037
-0.584976 -0.862943 -3.11179 102 117 122 1752393037
-0.58638 -0.84838 -3.11927 102 117 122 1752393037
-0.587792 -0.833747 -3.12677 102 117 122 1752393037
-0.58921 -0.819043 -3.13432 102 117 122 1752393037
-0.590635 -0.804268 -3.1419 102 117 122 1752393037
-0.592067 -0.789422 -3.14951 102 117 122 1752393037
-0.593505 -0.774504 -3.15717 102 117 122 1752393037
-0.594951 -0.759512 -3.16486 102 117 122 1752393037
-0.596404 -0.744448 -3.17259 102 117 122 1752393037
-0.597864 -0.72931 -3.18036 102 117 122 1752393037
-0.599331 -0.714097 -3.18816 102 117 122 1752393037
-0.600806 -0.69881 -3.196 102 117 122 1752393037
-0.602288 -0.683447 -3.20389 102 117 122 1752393037
-0.603777 -0.668008 -3.21181 102 117 122 1752393037
-0.605273 -0.652493 -3.21977 102 117 122 1752393037
-0.606777 -0.636901 -3.22777 102 117 122 1752393037
-0.608288 -0.62123 -3.23581 102 117 122 1752393037
-0.609807 -0.605482 -3.24389 102 117 122 1752393037
-0.611334 -0.589655 -3.25201 102 117 122 1752393037
-0.612868 -0.573748 -3.26017 102 117 122 1752393037
-0.61441 -0.557762 -3.26837 102 117 122 1752393037
-0.615959 -0.541695 -3.27661 102 117 122 1752393037
-0.617517 -0.525546 -3.2849 102 117 122 1752393037
-0.619082 -0.509316 -3.29323 102 117 122 1752393037
-0.620655 -0.493003 -3.30159 102 117 122 1752393037
-0.622237 -0.476607 -3.31001 102 117 122 1752393037
-0.623826 -0.460127 -3.31846 102 117 122 1752393037
-0.625424 -0.443563 -3.32696 102 117 122 1752393037
-0.627029 -0.426914 -3.3355 102 117 122 1752393037
-0.628644 -0.410179 -3.34409 102 117 122 1752393037
-0.630266 -0.393357 -3.35272 102 117 122 1752393037
-0.631897 -0.376449 -3.36139 102 117 122 1752393037
-0.633536 -0.359453 -3.37011 102 117 122 1752393037
-0.628396 -0.33871 -3.34277 177 105 42 1752393037
-0.616886 -0.315005 -3.28154 177 105 42 1752393037
-0.618499 -0.298283 -3.29012 177 105 42 1752393037
-0.62012 -0.281473 -3.29874 177 105 42 1752393037
-0.62175 -0.264574 -3.30742 177 105 42 1752393037
-0.623388 -0.247587 -3.31613 177 105 42 1752393037
-0.625035 -0.230509 -3.32489 177 105 42 1752393037
-0.626691 -0.213342 -3.3337 177 105 42 1752393037
-0.628355 -0.196083 -3.34256 177 105 42 1752393037
-0.630029 -0.178732 -3.35146 177 105 42 1752393037
-0.61957 -0.158188 -3.29582 255 255 255 1752393037
-0.615748 -0.139744 -3.27549 204 182 121 1752393037
-0.617401 -0.122604 -3.28428 204 182 121 1752393037
-0.619063 -0.105372 -3.29312 204 182 121 1752393037
-0.620734 -0.088047 -3.30201 204 182 121 1752393037
-0.622414 -0.070628 -3.31095 204 182 121 1752393037
-0.624103 -0.053115 -3.31993 204 182 121 1752393037
-0.625801 -0.035506 -3.32897 204 182 121 1752393037
-0.627509 -0.017802 -3.33805 204 182 121 1752393037
-0.629226 0 -3.34718 204 182 121 1752393037
-0.630952 0.017899 -3.35637 204 182 121 1752393037
-0.632688 0.035897 -3.3656 204 182 121 1752393037
-0.634433 0.053994 -3.37489 204 182 121 1752393037
-0.636188 0.072192 -3.38422 204 182 121 1752393037
-0.637953 0.09049 -3.39361 204 182 121 1752393037
-0.639728 0.10889 -3.40305 204 182 121 1752393037
-0.641512 0.127392 -3.41254 204 182 121 1752393037
-0.643307 0.145999 -3.42209 204 182 121 1752393037
-0.645111 0.164709 -3.43169 204 182 121 1752393037
-0.646926 0.183525 -3.44134 204 182 121 1752393037
-0.648751 0.202447 -3.45105 204 182 121 1752393037
-0.650586 0.221476 -3.46081 204 182 121 1752393037
-0.652432 0.240613 -3.47063 204 182 121 1752393037
-0.654288 0.259859 -3.4805 204 182 121 1752393037
-0.656155 0.279215 -3.49043 204 182 121 1752393037
-0.658032 0.298681 -3.50042 204 182 121 1752393037
-0.659921 0.31826 -3.51047 204 182 121 1752393037
-0.66182 0.337951 -3.52057 204 182 121 1752393037
-0.66373 0.357755 -3.53073 204 182 121 1752393037
-0.665651 0.377674 -3.54095 204 182 121 1752393037
-0.667584 0.397709 -3.55123 204 182 121 1752393037
-0.669527 0.417861 -3.56157 204 182 121 1752393037
-0.671482 0.43813 -3.57197 204 182 121 1752393037
-0.673448 0.458518 -3.58243 204 182 121 1752393037
-0.675426 0.479026 -3.59295 204 182 121 1752393037
-0.677416 0.499654 -3.60353 204 182 121 1752393037
-0.679417 0.520405 -3.61418 204 182 121 1752393037
-0.68143 0.541278 -3.62489 204 182 121 1752393037
-0.683455 0.562275 -3.63566 204 182 121 1752393037
-0.685493 0.583398 -3.6465 204 182 121 1752393037
-0.687542 0.604647 -3.6574 204 182 121 1752393037
-0.689604 0.626023 -3.66837 204 182 121 1752393037
-0.691678 0.647528 -3.6794 204 182 121 1752393037
-0.693764 0.669163 -3.6905 204 182 121 1752393037
-0.695864 0.690929 -3.70167 204 182 121 1752393037
-0.697976 0.712826 -3.7129 204 182 121 1752393037
-0.7001 0.734857 -3.7242 204 182 121 1752393037
-0.543704 -1.18196 -2.95512 102 117 122 1752393037
-0.544943 -1.16886 -2.96186 102 117 122 1752393037
-0.546189 -1.1557 -2.96863 102 117 122 1752393037
-0.547439 -1.14248 -2.97543 102 117 122 1752393037
-0.548696 -1.1292 -2.98226 102 117 122 1752393037
-0.549959 -1.11586 -2.98912 102 117 122 1752393037
-0.551227 -1.10245 -2.99601 102 117 122 1752393037
-0.552501 -1.08899 -3.00294 102 117 122 1752393037
-0.553781 -1.07546 -3.0099 102 117 122 1752393037
-0.555067 -1.06187 -3.01689 102 117 122 1752393037
-0.556359 -1.04821 -3.02391 102 117 122 1752393037
-0.557657 -1.03449 -3.03096 102 117 122 1752393037
-0.558961 -1.02071 -3.03805 102 117 122 1752393037
-0.560272 -1.00687 -3.04517 102 117 122 1752393037
-0.561588 -0.992952 -3.05233 102 117 122 1752393037
-0.56291 -0.978975 -3.05951 102 117 122 1752393037
-0.564239 -0.964931 -3.06674 102 117 122 1752393037
-0.565574 -0.950821 -3.07399 102 117 122 1752393037
-0.566916 -0.936643 -3.08128 102 117 122 1752393037
-0.568264 -0.922399 -3.08861 102 117 122 1752393037
-0.569618 -0.908086 -3.09597 102 117 122 1752393037
-0.570979 -0.893705 -3.10336 102 117 122 1752393037
-0.572346 -0.879256 -3.1108 102 117 122 1752393037
-0.57372 -0.864737 -3.11826 102 117 122 1752393037
-0.5751 -0.850148 -3.12577 102 117 122 1752393037
-0.576487 -0.835488 -3.13331 102 117 122 1752393037
-0.577881 -0.820758 -3.14088 102 117 122 1752393037
-0.579281 -0.805956 -3.14849 102 117 122 1752393037
-0.580689 -0.791083 -3.15614 102 117 122 1752393037
-0.582103 -0.776137 -3.16383 102 117 122 1752393037
-0.583524 -0.761118 -3.17155 102 117 122 1752393037
-0.584952 -0.746026 -3.17931 102 117 122 1752393037
-0.586387 -0.730859 -3.18711 102 117 122 1752393037
-0.587829 -0.715618 -3.19495 102 117 122 1752393037
-0.589278 -0.700302 -3.20283 102 117 122 1752393037
-0.590735 -0.68491 -3.21074 102 117 122 1752393037
-0.592198 -0.669441 -3.2187 102 117 122 1752393037
-0.593669 -0.653896 -3.22669 102 117 122 1752393037
-0.595147 -0.638274 -3.23473 102 117 122 1752393037
-0.596633 -0.622573 -3.2428 102 117 122 1752393037
-0.598126 -0.606794 -3.25092 102 117 122 1752393037
-0.599626 -0.590936 -3.25907 102 117 122 1752393037
-0.601134 -0.574998 -3.26727 102 117 122 1752393037
-0.60265 -0.55898 -3.27551 102 117 122 1752393037
-0.604173 -0.54288 -3.28379 102 117 122 1752393037
-0.605704 -0.526699 -3.29211 102 117 122 1752393037
-0.607243 -0.510436 -3.30047 102 117 122 1752393037
-0.60879 -0.49409 -3.30888 102 117 122 1752393037
-0.610344 -0.477661 -3.31733 102 117 122 1752393037
-0.611907 -0.461147 -3.32582 102 117 122 1752393037
-0.613477 -0.444549 -3.33435 102 117 122 1752393037
-0.615056 -0.427865 -3.34293 102 117 122 1752393037
-0.616643 -0.411095 -3.35156 102 117 122 1752393037
-0.618238 -0.394239 -3.36023 102 117 122 1752393037
-0.619841 -0.377295 -3.36894 102 117 122 1752393037
-0.621453 -0.360262 -3.3777 102 117 122 1752393037
-0.620513 -0.341732 -3.37259 177 105 42 1752393037
-0.606404 -0.316385 -3.29591 177 105 42 1752393037
-0.606713 -0.29896 -3.29759 177 105 42 1752393037
-0.608307 -0.282113 -3.30625 177 105 42 1752393037
-0.609909 -0.265178 -3.31496 177 105 42 1752393037
-0.61152 -0.248153 -3.32371 177 105 42 1752393037
-0.613139 -0.231038 -3.33252 177 105 42 1752393037
-0.614767 -0.213832 -3.34137 177 105 42 1752393037
-0.616404 -0.196535 -3.35026 177 105 42 1752393037
-0.61805 -0.179145 -3.3592 177 105 42 1752393037
-0.610777 -0.159333 -3.31968 255 255 255 1752393037
-0.604047 -0.140069 -3.2831 204 182 121 1752393037
-0.605673 -0.12289 -3.29193 204 182 121 1752393037
-0.607307 -0.105619 -3.30082 204 182 121 1752393037
-0.60895 -0.088254 -3.30975 204 182 121 1752393037
