ply
format ascii 1.0
comment PCL generated
obj_info is_cyberware_data 0
obj_info is_mesh 0
obj_info is_warped 0
obj_info is_interlaced 0
obj_info num_cols 23103
obj_info num_rows 1
obj_info echo_rgb_offset_x 0
obj_info echo_rgb_offset_y 0
obj_info echo_rgb_offset_z 0
obj_info echo_rgb_frontfocus 0.0
obj_info echo_rgb_backfocus 0.0
obj_info echo_rgb_pixelsize 0.0
obj_info echo_rgb_centerpixel 0
obj_info echo_frames 1
obj_info echo_lgincr 0.0
element vertex 945
property float x
property float y
property float z
property uchar red
property uchar green
property uchar blue
property uint label
end_header
0.507963 -0.607819 -3.25641 204 182 121 1752393037
0.509379 -0.592099 -3.26548 204 182 121 1752393037
0.510803 -0.57629 -3.27461 204 182 121 1752393037
0.512235 -0.560393 -3.28379 204 182 121 1752393037
0.513674 -0.544407 -3.29302 204 182 121 1752393037
0.515122 -0.52833 -3.3023 204 182 121 1752393037
0.516578 -0.512163 -3.31164 204 182 121 1752393037
0.518043 -0.495904 -3.32102 204 182 121 1752393037
0.519515 -0.479552 -3.33046 204 182 121 1752393037
0.520996 -0.463108 -3.33996 204 182 121 1752393037
0.522486 -0.446569 -3.34951 204 182 121 1752393037
0.523984 -0.429935 -3.35911 204 182 121 1752393037
0.52549 -0.413206 -3.36877 204 182 121 1752393037
0.527006 -0.39638 -3.37848 204 182 121 1752393037
0.52853 -0.379457 -3.38825 204 182 121 1752393037
0.530063 -0.362436 -3.39808 204 182 121 1752393037
0.531605 -0.345316 -3.40796 204 182 121 1752393037
0.533155 -0.328096 -3.41791 204 182 121 1752393037
0.534715 -0.310775 -3.42791 204 182 121 1752393037
0.536285 -0.293352 -3.43797 204 182 121 1752393037
0.537863 -0.275827 -3.44808 204 182 121 1752393037
0.53945 -0.258198 -3.45826 204 182 121 1752393037
0.541047 -0.240465 -3.4685 204 182 121 1752393037
0.542654 -0.222627 -3.4788 204 182 121 1752393037
0.54427 -0.204683 -3.48916 204 182 121 1752393037
0.545896 -0.186631 -3.49958 204 182 121 1752393037
0.547531 -0.168471 -3.51007 204 182 121 1752393037
0.549177 -0.150202 -3.52061 204 182 121 1752393037
0.550832 -0.131823 -3.53122 204 182 121 1752393037
0.552497 -0.113333 -3.5419 204 182 121 1752393037
0.554172 -0.09473 -3.55264 204 182 121 1752393037
0.555858 -0.076015 -3.56345 204 182 121 1752393037
0.557554 -0.057185 -3.57432 204 182 121 1752393037
0.55926 -0.03824 -3.58525 204 182 121 1752393037
0.560977 -0.019179 -3.59626 204 182 121 1752393037
0.562704 0 -3.60733 204 182 121 1752393037
0.564442 0.019297 -3.61847 204 182 121 1752393037
0.56619 0.038714 -3.62968 204 182 121 1752393037
0.56795 0.058251 -3.64096 204 182 121 1752393037
0.56972 0.07791 -3.65231 204 182 121 1752393037
0.571502 0.097693 -3.66374 204 182 121 1752393037
0.573295 0.117599 -3.67523 204 182 121 1752393037
0.575099 0.137631 -3.68679 204 182 121 1752393037
0.576914 0.157789 -3.69843 204 182 121 1752393037
0.578741 0.178074 -3.71014 204 182 121 1752393037
0.58058 0.198489 -3.72193 204 182 121 1752393037
0.58243 0.219034 -3.73379 204 182 121 1752393037
0.584292 0.23971 -3.74573 204 182 121 1752393037
0.586166 0.260518 -3.75774 204 182 121 1752393037
0.588052 0.281461 -3.76983 204 182 121 1752393037
0.589951 0.302539 -3.78201 204 182 121 1752393037
0.591861 0.323753 -3.79425 204 182 121 1752393037
0.593784 0.345105 -3.80658 204 182 121 1752393037
0.59572 0.366597 -3.81899 204 182 121 1752393037
0.597668 0.388229 -3.83148 204 182 121 1752393037
0.599629 0.410003 -3.84405 204 182 121 1752393037
0.601603 0.43192 -3.8567 204 182 121 1752393037
0.60359 0.453982 -3.86944 204 182 121 1752393037
0.60559 0.47619 -3.88226 204 182 121 1752393037
0.607603 0.498546 -3.89517 204 182 121 1752393037
0.60963 0.521051 -3.90816 204 182 121 1752393037
0.61167 0.543707 -3.92124 204 182 121 1752393037
0.613724 0.566515 -3.93441 204 182 121 1752393037
0.615792 0.589476 -3.94767 204 182 121 1752393037
0.468861 -1.17215 -2.93059 204 182 121 1752393037
0.470037 -1.15942 -2.93794 204 182 121 1752393037
0.471218 -1.14663 -2.94532 204 182 121 1752393037
0.472406 -1.13377 -2.95275 204 182 121 1752393037
0.473599 -1.12085 -2.96021 204 182 121 1752393037
0.474799 -1.10786 -2.96771 204 182 121 1752393037
0.476005 -1.09481 -2.97524 204 182 121 1752393037
0.477217 -1.08169 -2.98282 204 182 121 1752393037
0.478435 -1.0685 -2.99043 204 182 121 1752393037
0.479659 -1.05525 -2.99808 204 182 121 1752393037
0.48089 -1.04193 -3.00577 204 182 121 1752393037
0.482127 -1.02854 -3.01351 204 182 121 1752393037
0.48337 -1.01508 -3.02128 204 182 121 1752393037
0.48462 -1.00155 -3.02909 204 182 121 1752393037
0.485876 -0.987947 -3.03694 204 182 121 1752393037
0.487139 -0.974277 -3.04483 204 182 121 1752393037
0.488408 -0.960535 -3.05277 204 182 121 1752393037
0.489684 -0.946722 -3.06074 204 182 121 1752393037
0.490966 -0.932836 -3.06876 204 182 121 1752393037
0.492256 -0.918877 -3.07682 204 182 121 1752393037
0.493552 -0.904845 -3.08492 204 182 121 1752393037
0.494855 -0.890739 -3.09306 204 182 121 1752393037
0.496165 -0.876558 -3.10125 204 182 121 1752393037
0.497482 -0.862301 -3.10948 204 182 121 1752393037
0.498805 -0.847969 -3.11776 204 182 121 1752393037
0.500136 -0.833561 -3.12608 204 182 121 1752393037
0.501474 -0.819075 -3.13444 204 182 121 1752393037
0.50282 -0.804511 -3.14285 204 182 121 1752393037
0.504172 -0.78987 -3.1513 204 182 121 1752393037
0.505532 -0.775149 -3.1598 204 182 121 1752393037
0.506899 -0.760348 -3.16834 204 182 121 1752393037
0.508273 -0.745468 -3.17694 204 182 121 1752393037
0.509656 -0.730506 -3.18558 204 182 121 1752393037
0.511045 -0.715463 -3.19426 204 182 121 1752393037
0.512442 -0.700338 -3.20299 204 182 121 1752393037
0.513847 -0.685129 -3.21177 204 182 121 1752393037
0.51526 -0.669837 -3.2206 204 182 121 1752393037
0.51668 -0.654461 -3.22948 204 182 121 1752393037
0.518108 -0.639 -3.23841 204 182 121 1752393037
0.519544 -0.623453 -3.24738 204 182 121 1752393037
0.520988 -0.607819 -3.25641 204 182 121 1752393037
0.52244 -0.592099 -3.26548 204 182 121 1752393037
0.5239 -0.57629 -3.27461 204 182 121 1752393037
0.525369 -0.560393 -3.28379 204 182 121 1752393037
0.526845 -0.544407 -3.29302 204 182 121 1752393037
0.52833 -0.52833 -3.3023 204 182 121 1752393037
0.529824 -0.512163 -3.31164 204 182 121 1752393037
0.531326 -0.495904 -3.32102 204 182 121 1752393037
0.532836 -0.479552 -3.33046 204 182 121 1752393037
0.534355 -0.463108 -3.33996 204 182 121 1752393037
0.535883 -0.446569 -3.34951 204 182 121 1752393037
0.537419 -0.429935 -3.35911 204 182 121 1752393037
0.538964 -0.413206 -3.36877 204 182 121 1752393037
0.540519 -0.39638 -3.37848 204 182 121 1752393037
0.542082 -0.379457 -3.38825 204 182 121 1752393037
0.543654 -0.362436 -3.39808 204 182 121 1752393037
0.545235 -0.345316 -3.40796 204 182 121 1752393037
0.546826 -0.328096 -3.41791 204 182 121 1752393037
0.548426 -0.310775 -3.42791 204 182 121 1752393037
0.550035 -0.293352 -3.43797 204 182 121 1752393037
0.551654 -0.275827 -3.44808 204 182 121 1752393037
0.553282 -0.258198 -3.45826 204 182 121 1752393037
0.55492 -0.240466 -3.4685 204 182 121 1752393037
0.556568 -0.222627 -3.4788 204 182 121 1752393037
0.558226 -0.204683 -3.48916 204 182 121 1752393037
0.559893 -0.186631 -3.49958 204 182 121 1752393037
0.561571 -0.168471 -3.51007 204 182 121 1752393037
0.563258 -0.150202 -3.52061 204 182 121 1752393037
0.564956 -0.131823 -3.53122 204 182 121 1752393037
0.566664 -0.113333 -3.5419 204 182 121 1752393037
0.568382 -0.09473 -3.55264 204 182 121 1752393037
0.570111 -0.076015 -3.56345 204 182 121 1752393037
0.57185 -0.057185 -3.57432 204 182 121 1752393037
0.5736 -0.03824 -3.58525 204 182 121 1752393037
0.575361 -0.019179 -3.59626 204 182 121 1752393037
0.577132 0 -3.60733 204 182 121 1752393037
0.578915 0.019297 -3.61847 204 182 121 1752393037
0.580708 0.038714 -3.62968 204 182 121 1752393037
0.582513 0.058251 -3.64096 204 182 121 1752393037
0.584329 0.07791 -3.65231 204 182 121 1752393037
0.586156 0.097693 -3.66374 204 182 121 1752393037
0.587995 0.117599 -3.67523 204 182 121 1752393037
0.589845 0.137631 -3.68679 204 182 121 1752393037
0.591707 0.157789 -3.69843 204 182 121 1752393037
0.593581 0.178074 -3.71014 204 182 121 1752393037
0.595466 0.198489 -3.72193 204 182 121 1752393037
0.597364 0.219034 -3.73379 204 182 121 1752393037
0.599274 0.23971 -3.74573 204 182 121 1752393037
0.601196 0.260518 -3.75774 204 182 121 1752393037
0.603131 0.281461 -3.76983 204 182 121 1752393037
0.605078 0.302539 -3.782 204 182 121 1752393037
0.607037 0.323753 -3.79425 204 182 121 1752393037
0.609009 0.345105 -3.80658 204 182 121 1752393037
0.610994 0.366597 -3.81899 204 182 121 1752393037
0.612993 0.388229 -3.83148 204 182 121 1752393037
0.615004 0.410003 -3.84405 204 182 121 1752393037
0.617028 0.43192 -3.8567 204 182 121 1752393037
0.619066 0.453982 -3.86944 204 182 121 1752393037
0.621118 0.47619 -3.88226 204 182 121 1752393037
0.623183 0.498546 -3.89517 204 182 121 1752393037
0.625261 0.521051 -3.90816 204 182 121 1752393037
0.627354 0.543707 -3.92124 204 182 121 1752393037
0.629461 0.566515 -3.93441 204 182 121 1752393037
0.631582 0.589476 -3.94767 204 182 121 1752393037
0.480582 -1.17215 -2.93059 204 182 121 1752393037
0.481787 -1.15942 -2.93794 204 182 121 1752393037
0.482999 -1.14663 -2.94532 204 182 121 1752393037
0.484216 -1.13377 -2.95275 204 182 121 1752393037
0.485439 -1.12085 -2.96021 204 182 121 1752393037
0.486669 -1.10786 -2.96771 204 182 121 1752393037
0.487905 -1.09481 -2.97524 204 182 121 1752393037
0.489147 -1.08169 -2.98282 204 182 121 1752393037
0.490396 -1.0685 -2.99043 204 182 121 1752393037
0.491651 -1.05525 -2.99808 204 182 121 1752393037
0.492912 -1.04193 -3.00577 204 182 121 1752393037
0.49418 -1.02854 -3.01351 204 182 121 1752393037
0.495454 -1.01508 -3.02128 204 182 121 1752393037
0.496735 -1.00155 -3.02909 204 182 121 1752393037
0.498023 -0.987947 -3.03694 204 182 121 1752393037
0.499317 -0.974277 -3.04483 204 182 121 1752393037
0.500618 -0.960535 -3.05277 204 182 121 1752393037
0.501926 -0.946722 -3.06074 204 182 121 1752393037
0.503241 -0.932836 -3.06876 204 182 121 1752393037
0.504562 -0.918877 -3.07682 204 182 121 1752393037
0.505891 -0.904845 -3.08492 204 182 121 1752393037
0.507226 -0.890739 -3.09306 204 182 121 1752393037
0.508569 -0.876558 -3.10125 204 182 121 1752393037
0.509919 -0.862301 -3.10948 204 182 121 1752393037
0.511276 -0.847969 -3.11776 204 182 121 1752393037
0.51264 -0.833561 -3.12608 204 182 121 1752393037
0.514011 -0.819075 -3.13444 204 182 121 1752393037
0.51539 -0.804511 -3.14285 204 182 121 1752393037
0.516776 -0.78987 -3.1513 204 182 121 1752393037
0.51817 -0.775149 -3.1598 204 182 121 1752393037
0.519571 -0.760348 -3.16834 204 182 121 1752393037
0.52098 -0.745468 -3.17694 204 182 121 1752393037
0.522397 -0.730506 -3.18557 204 182 121 1752393037
0.523821 -0.715463 -3.19426 204 182 121 1752393037
0.525253 -0.700338 -3.20299 204 182 121 1752393037
0.526693 -0.685129 -3.21177 204 182 121 1752393037
0.528141 -0.669837 -3.2206 204 182 121 1752393037
0.529597 -0.654461 -3.22948 204 182 121 1752393037
0.531061 -0.639 -3.2384 204 182 121 1752393037
0.532533 -0.623453 -3.24738 204 182 121 1752393037
0.534013 -0.607819 -3.25641 204 182 121 1752393037
0.535501 -0.592099 -3.26548 204 182 121 1752393037
0.536998 -0.57629 -3.27461 204 182 121 1752393037
0.538503 -0.560393 -3.28379 204 182 121 1752393037
0.540017 -0.544407 -3.29302 204 182 121 1752393037
0.541539 -0.52833 -3.3023 204 182 121 1752393037
0.543069 -0.512163 -3.31164 204 182 121 1752393037
0.544609 -0.495904 -3.32102 204 182 121 1752393037
0.546157 -0.479552 -3.33046 204 182 121 1752393037
0.547714 -0.463108 -3.33996 204 182 121 1752393037
0.54928 -0.446569 -3.34951 204 182 121 1752393037
0.550855 -0.429935 -3.35911 204 182 121 1752393037
0.552439 -0.413206 -3.36877 204 182 121 1752393037
0.554032 -0.39638 -3.37848 204 182 121 1752393037
0.555634 -0.379457 -3.38825 204 182 121 1752393037
0.557245 -0.362436 -3.39808 204 182 121 1752393037
0.558866 -0.345316 -3.40796 204 182 121 1752393037
0.560497 -0.328096 -3.41791 204 182 121 1752393037
0.562137 -0.310775 -3.42791 204 182 121 1752393037
0.563786 -0.293352 -3.43797 204 182 121 1752393037
0.565445 -0.275827 -3.44808 204 182 121 1752393037
0.567115 -0.258198 -3.45826 204 182 121 1752393037
0.568793 -0.240465 -3.4685 204 182 121 1752393037
0.570482 -0.222627 -3.4788 204 182 121 1752393037
0.572181 -0.204683 -3.48916 204 182 121 1752393037
0.57389 -0.186631 -3.49958 204 182 121 1752393037
0.57561 -0.168471 -3.51007 204 182 121 1752393037
0.577339 -0.150202 -3.52061 204 182 121 1752393037
0.57908 -0.131823 -3.53122 204 182 121 1752393037
0.58083 -0.113333 -3.5419 204 182 121 1752393037
0.582591 -0.09473 -3.55264 204 182 121 1752393037
0.584363 -0.076015 -3.56345 204 182 121 1752393037
0.586146 -0.057185 -3.57432 204 182 121 1752393037
0.58794 -0.03824 -3.58525 204 182 121 1752393037
0.589745 -0.019179 -3.59626 204 182 121 1752393037
0.59156 0 -3.60733 204 182 121 1752393037
0.593387 0.019297 -3.61847 204 182 121 1752393037
0.595226 0.038714 -3.62968 204 182 121 1752393037
0.597076 0.058251 -3.64096 204 182 121 1752393037
0.598937 0.07791 -3.65231 204 182 121 1752393037
0.60081 0.097693 -3.66374 204 182 121 1752393037
0.602695 0.117599 -3.67523 204 182 121 1752393037
0.604591 0.137631 -3.68679 204 182 121 1752393037
0.6065 0.157789 -3.69843 204 182 121 1752393037
0.60842 0.178074 -3.71014 204 182 121 1752393037
0.610353 0.198489 -3.72193 204 182 121 1752393037
0.612298 0.219034 -3.73379 204 182 121 1752393037
0.614256 0.23971 -3.74573 204 182 121 1752393037
0.616226 0.260518 -3.75774 204 182 121 1752393037
0.618209 0.281461 -3.76983 204 182 121 1752393037
0.620204 0.302539 -3.782 204 182 121 1752393037
0.622213 0.323753 -3.79425 204 182 121 1752393037
0.624235 0.345105 -3.80658 204 182 121 1752393037
0.626269 0.366597 -3.81899 204 182 121 1752393037
0.628318 0.388229 -3.83148 204 182 121 1752393037
0.630379 0.410003 -3.84405 204 182 121 1752393037
0.632454 0.43192 -3.8567 204 182 121 1752393037
0.634543 0.453982 -3.86944 204 182 121 1752393037
0.636646 0.47619 -3.88226 204 182 121 1752393037
0.638762 0.498546 -3.89517 204 182 121 1752393037
0.640893 0.521051 -3.90816 204 182 121 1752393037
0.643038 0.543707 -3.92124 204 182 121 1752393037
0.645197 0.566515 -3.93441 204 182 121 1752393037
0.647371 0.589476 -3.94767 204 182 121 1752393037
0.492304 -1.17215 -2.93059 204 182 121 1752393037
0.493538 -1.15942 -2.93794 204 182 121 1752393037
0.494779 -1.14663 -2.94532 204 182 121 1752393037
0.496026 -1.13377 -2.95275 204 182 121 1752393037
0.497279 -1.12085 -2.96021 204 182 121 1752393037
0.498539 -1.10786 -2.96771 204 182 121 1752393037
0.499805 -1.09481 -2.97524 204 182 121 1752393037
0.501077 -1.08169 -2.98282 204 182 121 1752393037
0.502356 -1.0685 -2.99043 204 182 121 1752393037
0.503642 -1.05525 -2.99808 204 182 121 1752393037
0.504934 -1.04193 -3.00577 204 182 121 1752393037
0.506233 -1.02854 -3.0135 204 182 121 1752393037
0.507538 -1.01508 -3.02128 204 182 121 1752393037
0.50885 -1.00155 -3.02909 204 182 121 1752393037
0.510169 -0.987947 -3.03694 204 182 121 1752393037
0.511495 -0.974277 -3.04483 204 182 121 1752393037
0.512828 -0.960535 -3.05277 204 182 121 1752393037
0.514168 -0.946722 -3.06074 204 182 121 1752393037
0.515515 -0.932836 -3.06876 204 182 121 1752393037
0.516868 -0.918877 -3.07682 204 182 121 1752393037
0.518229 -0.904845 -3.08492 204 182 121 1752393037
0.519598 -0.890739 -3.09306 204 182 121 1752393037
0.520973 -0.876558 -3.10125 204 182 121 1752393037
0.522356 -0.862301 -3.10948 204 182 121 1752393037
0.523746 -0.847969 -3.11776 204 182 121 1752393037
0.525143 -0.833561 -3.12608 204 182 121 1752393037
0.526548 -0.819075 -3.13444 204 182 121 1752393037
0.52796 -0.804511 -3.14285 204 182 121 1752393037
0.529381 -0.789869 -3.1513 204 182 121 1752393037
0.530808 -0.775149 -3.1598 204 182 121 1752393037
0.532244 -0.760348 -3.16834 204 182 121 1752393037
0.533687 -0.745468 -3.17694 204 182 121 1752393037
0.535138 -0.730506 -3.18557 204 182 121 1752393037
0.536597 -0.715463 -3.19426 204 182 121 1752393037
0.538064 -0.700338 -3.20299 204 182 121 1752393037
0.539539 -0.685129 -3.21177 204 182 121 1752393037
0.541022 -0.669837 -3.2206 204 182 121 1752393037
0.542514 -0.654461 -3.22948 204 182 121 1752393037
0.544013 -0.639 -3.2384 204 182 121 1752393037
0.545521 -0.623453 -3.24738 204 182 121 1752393037
0.547037 -0.607819 -3.25641 204 182 121 1752393037
0.548562 -0.592099 -3.26548 204 182 121 1752393037
0.550095 -0.57629 -3.27461 204 182 121 1752393037
0.551637 -0.560393 -3.28379 204 182 121 1752393037
0.553188 -0.544407 -3.29302 204 182 121 1752393037
0.554747 -0.52833 -3.3023 204 182 121 1752393037
0.556315 -0.512163 -3.31163 204 182 121 1752393037
0.557892 -0.495904 -3.32102 204 182 121 1752393037
0.559478 -0.479552 -3.33046 204 182 121 1752393037
0.561073 -0.463108 -3.33996 204 182 121 1752393037
0.562677 -0.446569 -3.3495 204 182 121 1752393037
0.56429 -0.429935 -3.35911 204 182 121 1752393037
0.565913 -0.413206 -3.36877 204 182 121 1752393037
0.567544 -0.39638 -3.37848 204 182 121 1752393037
0.569186 -0.379457 -3.38825 204 182 121 1752393037
0.570837 -0.362436 -3.39808 204 182 121 1752393037
0.572497 -0.345316 -3.40796 204 182 121 1752393037
0.574167 -0.328096 -3.41791 204 182 121 1752393037
0.575847 -0.310775 -3.42791 204 182 121 1752393037
0.577537 -0.293352 -3.43796 204 182 121 1752393037
0.579237 -0.275827 -3.44808 204 182 121 1752393037
0.580946 -0.258198 -3.45826 204 182 121 1752393037
0.582666 -0.240465 -3.4685 204 182 121 1752393037
0.584396 -0.222627 -3.4788 204 182 121 1752393037
0.586137 -0.204683 -3.48916 204 182 121 1752393037
0.587888 -0.186631 -3.49958 204 182 121 1752393037
0.589649 -0.168471 -3.51007 204 182 121 1752393037
0.591421 -0.150202 -3.52061 204 182 121 1752393037
0.593203 -0.131823 -3.53122 204 182 121 1752393037
0.594997 -0.113333 -3.5419 204 182 121 1752393037
0.596801 -0.09473 -3.55264 204 182 121 1752393037
0.598616 -0.076015 -3.56345 204 182 121 1752393037
0.600442 -0.057185 -3.57432 204 182 121 1752393037
0.60228 -0.03824 -3.58525 204 182 121 1752393037
0.604129 -0.019179 -3.59626 204 182 121 1752393037
0.605989 0 -3.60733 204 182 121 1752393037
0.60786 0.019297 -3.61847 204 182 121 1752393037
0.609743 0.038714 -3.62968 204 182 121 1752393037
0.611638 0.058251 -3.64096 204 182 121 1752393037
0.613545 0.07791 -3.65231 204 182 121 1752393037
0.615464 0.097693 -3.66374 204 182 121 1752393037
0.617394 0.117599 -3.67523 204 182 121 1752393037
0.619337 0.13763 -3.68679 204 182 121 1752393037
0.621292 0.157789 -3.69843 204 182 121 1752393037
0.62326 0.178074 -3.71014 204 182 121 1752393037
0.62524 0.198489 -3.72193 204 182 121 1752393037
0.627232 0.219034 -3.73379 204 182 121 1752393037
0.629238 0.23971 -3.74573 204 182 121 1752393037
0.631256 0.260518 -3.75774 204 182 121 1752393037
0.633287 0.281461 -3.76983 204 182 121 1752393037
0.635331 0.302539 -3.782 204 182 121 1752393037
0.637389 0.323753 -3.79425 204 182 121 1752393037
0.63946 0.345105 -3.80658 204 182 121 1752393037
0.641544 0.366597 -3.81899 204 182 121 1752393037
0.643642 0.388229 -3.83148 204 182 121 1752393037
0.645754 0.410003 -3.84405 204 182 121 1752393037
0.64788 0.43192 -3.8567 204 182 121 1752393037
0.649739 0.453786 -3.86777 204 182 121 1752393037
0.65132 0.475567 -3.87718 204 182 121 1752393037
0.652909 0.497455 -3.88664 204 182 121 1752393037
0.654506 0.519449 -3.89615 204 182 121 1752393037
0.656111 0.541552 -3.9057 204 182 121 1752393037
0.657723 0.563763 -3.9153 204 182 121 1752393037
0.659344 0.586083 -3.92494 204 182 121 1752393037
0.660972 0.608514 -3.93464 204 182 121 1752393037
0.504025 -1.17215 -2.93059 204 182 121 1752393037
0.505289 -1.15942 -2.93794 204 182 121 1752393037
0.506559 -1.14663 -2.94532 204 182 121 1752393037
0.507836 -1.13377 -2.95275 204 182 121 1752393037
0.509119 -1.12085 -2.96021 204 182 121 1752393037
0.510409 -1.10786 -2.96771 204 182 121 1752393037
0.511705 -1.09481 -2.97524 204 182 121 1752393037
0.513008 -1.08169 -2.98282 204 182 121 1752393037
0.514317 -1.0685 -2.99043 204 182 121 1752393037
0.515633 -1.05525 -2.99808 204 182 121 1752393037
0.516956 -1.04193 -3.00577 204 182 121 1752393037
0.518286 -1.02854 -3.01351 204 182 121 1752393037
0.519622 -1.01508 -3.02128 204 182 121 1752393037
0.520966 -1.00155 -3.02909 204 182 121 1752393037
0.522316 -0.987947 -3.03694 204 182 121 1752393037
0.523674 -0.974277 -3.04483 204 182 121 1752393037
0.525038 -0.960535 -3.05277 204 182 121 1752393037
0.52641 -0.946722 -3.06074 204 182 121 1752393037
0.527789 -0.932836 -3.06876 204 182 121 1752393037
0.529175 -0.918877 -3.07682 204 182 121 1752393037
0.530568 -0.904845 -3.08492 204 182 121 1752393037
0.531969 -0.890738 -3.09306 204 182 121 1752393037
0.533377 -0.876558 -3.10125 204 182 121 1752393037
0.534793 -0.862301 -3.10948 204 182 121 1752393037
0.536216 -0.847969 -3.11776 204 182 121 1752393037
0.537646 -0.83356 -3.12608 204 182 121 1752393037
0.539085 -0.819075 -3.13444 204 182 121 1752393037
0.540531 -0.804511 -3.14285 204 182 121 1752393037
0.541985 -0.789869 -3.1513 204 182 121 1752393037
0.543447 -0.775149 -3.1598 204 182 121 1752393037
0.544916 -0.760348 -3.16834 204 182 121 1752393037
0.546394 -0.745468 -3.17693 204 182 121 1752393037
0.54788 -0.730506 -3.18557 204 182 121 1752393037
0.549373 -0.715463 -3.19426 204 182 121 1752393037
0.550875 -0.700338 -3.20299 204 182 121 1752393037
0.552385 -0.685129 -3.21177 204 182 121 1752393037
0.553904 -0.669837 -3.2206 204 182 121 1752393037
0.555431 -0.654461 -3.22948 204 182 121 1752393037
0.556966 -0.639 -3.2384 204 182 121 1752393037
0.55851 -0.623453 -3.24738 204 182 121 1752393037
0.560062 -0.607819 -3.25641 204 182 121 1752393037
0.561623 -0.592099 -3.26548 204 182 121 1752393037
0.563193 -0.57629 -3.27461 204 182 121 1752393037
0.564771 -0.560393 -3.28379 204 182 121 1752393037
0.566359 -0.544407 -3.29302 204 182 121 1752393037
0.567955 -0.52833 -3.3023 204 182 121 1752393037
0.56956 -0.512163 -3.31164 204 182 121 1752393037
0.571175 -0.495904 -3.32102 204 182 121 1752393037
0.572799 -0.479552 -3.33046 204 182 121 1752393037
0.574431 -0.463108 -3.33996 204 182 121 1752393037
0.576074 -0.446569 -3.3495 204 182 121 1752393037
0.577725 -0.429935 -3.35911 204 182 121 1752393037
0.579387 -0.413206 -3.36877 204 182 121 1752393037
0.581057 -0.39638 -3.37848 204 182 121 1752393037
0.582738 -0.379457 -3.38825 204 182 121 1752393037
0.584428 -0.362436 -3.39808 204 182 121 1752393037
0.586128 -0.345316 -3.40796 204 182 121 1752393037
0.587838 -0.328096 -3.41791 204 182 121 1752393037
0.589558 -0.310775 -3.42791 204 182 121 1752393037
0.591288 -0.293352 -3.43796 204 182 121 1752393037
0.593028 -0.275827 -3.44808 204 182 121 1752393037
0.594778 -0.258198 -3.45826 204 182 121 1752393037
0.596539 -0.240465 -3.4685 204 182 121 1752393037
0.598311 -0.222627 -3.4788 204 182 121 1752393037
0.600093 -0.204683 -3.48916 204 182 121 1752393037
0.601885 -0.186631 -3.49958 204 182 121 1752393037
0.603688 -0.168471 -3.51007 204 182 121 1752393037
0.605502 -0.150202 -3.52061 204 182 121 1752393037
0.607327 -0.131823 -3.53122 204 182 121 1752393037
0.609163 -0.113333 -3.5419 204 182 121 1752393037
0.61101 -0.09473 -3.55264 204 182 121 1752393037
0.612869 -0.076015 -3.56345 204 182 121 1752393037
0.614739 -0.057185 -3.57432 204 182 121 1752393037
0.61662 -0.03824 -3.58525 204 182 121 1752393037
0.618513 -0.019179 -3.59626 204 182 121 1752393037
0.620417 0 -3.60733 204 182 121 1752393037
0.622333 0.019297 -3.61847 204 182 121 1752393037
0.624261 0.038714 -3.62968 204 182 121 1752393037
0.626201 0.058251 -3.64096 204 182 121 1752393037
0.628153 0.07791 -3.65231 204 182 121 1752393037
0.630118 0.097693 -3.66374 204 182 121 1752393037
0.632094 0.117599 -3.67523 204 182 121 1752393037
0.634083 0.13763 -3.68679 204 182 121 1752393037
0.636085 0.157789 -3.69843 204 182 121 1752393037
0.638099 0.178074 -3.71014 204 182 121 1752393037
0.640126 0.198489 -3.72193 204 182 121 1752393037
0.642166 0.219033 -3.73379 204 182 121 1752393037
0.644219 0.23971 -3.74573 204 182 121 1752393037
0.646286 0.260518 -3.75774 204 182 121 1752393037
0.648365 0.281461 -3.76983 204 182 121 1752393037
0.650061 0.302354 -3.7797 204 182 121 1752393037
0.651607 0.323278 -3.78869 204 182 121 1752393037
0.653161 0.344302 -3.79772 204 182 121 1752393037
0.654721 0.365426 -3.80679 204 182 121 1752393037
0.65629 0.386651 -3.81591 204 182 121 1752393037
0.657865 0.407978 -3.82507 204 182 121 1752393037
0.659449 0.429408 -3.83428 204 182 121 1752393037
0.66104 0.450942 -3.84353 204 182 121 1752393037
0.662638 0.472579 -3.85282 204 182 121 1752393037
0.664245 0.494322 -3.86216 204 182 121 1752393037
0.665859 0.51617 -3.87155 204 182 121 1752393037
0.667481 0.538124 -3.88098 204 182 121 1752393037
0.669111 0.560186 -3.89046 204 182 121 1752393037
0.670749 0.582356 -3.89998 204 182 121 1752393037
0.672395 0.604634 -3.90955 204 182 121 1752393037
0.515747 -1.17215 -2.93059 204 182 121 1752393037
0.51704 -1.15942 -2.93794 204 182 121 1752393037
0.51834 -1.14663 -2.94532 204 182 121 1752393037
0.519646 -1.13377 -2.95275 204 182 121 1752393037
0.520959 -1.12085 -2.96021 204 182 121 1752393037
0.522279 -1.10786 -2.96771 204 182 121 1752393037
0.523605 -1.09481 -2.97524 204 182 121 1752393037
0.524938 -1.08169 -2.98282 204 182 121 1752393037
0.526278 -1.0685 -2.99043 204 182 121 1752393037
0.527625 -1.05525 -2.99808 204 182 121 1752393037
0.528978 -1.04193 -3.00577 204 182 121 1752393037
0.530339 -1.02854 -3.0135 204 182 121 1752393037
0.531707 -1.01508 -3.02128 204 182 121 1752393037
0.533081 -1.00155 -3.02909 204 182 121 1752393037
0.534463 -0.987947 -3.03694 204 182 121 1752393037
0.535852 -0.974277 -3.04483 204 182 121 1752393037
0.537248 -0.960535 -3.05277 204 182 121 1752393037
0.538652 -0.946722 -3.06074 204 182 121 1752393037
0.540063 -0.932836 -3.06876 204 182 121 1752393037
0.541481 -0.918877 -3.07682 204 182 121 1752393037
0.542907 -0.904845 -3.08492 204 182 121 1752393037
0.54434 -0.890739 -3.09306 204 182 121 1752393037
0.545781 -0.876558 -3.10125 204 182 121 1752393037
0.54723 -0.862301 -3.10948 204 182 121 1752393037
0.548686 -0.847969 -3.11776 204 182 121 1752393037
0.55015 -0.83356 -3.12608 204 182 121 1752393037
0.551622 -0.819075 -3.13444 204 182 121 1752393037
0.553102 -0.804511 -3.14285 204 182 121 1752393037
0.554589 -0.78987 -3.1513 204 182 121 1752393037
0.556085 -0.775149 -3.1598 204 182 121 1752393037
0.557589 -0.760348 -3.16834 204 182 121 1752393037
0.559101 -0.745468 -3.17694 204 182 121 1752393037
0.560621 -0.730506 -3.18557 204 182 121 1752393037
0.56215 -0.715463 -3.19426 204 182 121 1752393037
0.563686 -0.700337 -3.20299 204 182 121 1752393037
0.565232 -0.685129 -3.21177 204 182 121 1752393037
0.566785 -0.669837 -3.2206 204 182 121 1752393037
0.568348 -0.654461 -3.22948 204 182 121 1752393037
0.569919 -0.639 -3.2384 204 182 121 1752393037
0.571498 -0.623453 -3.24738 204 182 121 1752393037
0.573087 -0.607819 -3.25641 204 182 121 1752393037
0.574684 -0.592099 -3.26548 204 182 121 1752393037
0.57629 -0.57629 -3.27461 204 182 121 1752393037
0.577906 -0.560393 -3.28379 204 182 121 1752393037
0.57953 -0.544407 -3.29302 204 182 121 1752393037
0.581163 -0.52833 -3.3023 204 182 121 1752393037
0.582806 -0.512163 -3.31164 204 182 121 1752393037
0.584458 -0.495904 -3.32102 204 182 121 1752393037
0.586119 -0.479552 -3.33046 204 182 121 1752393037
0.58779 -0.463108 -3.33996 204 182 121 1752393037
0.589471 -0.446569 -3.3495 204 182 121 1752393037
0.591161 -0.429935 -3.35911 204 182 121 1752393037
0.592861 -0.413206 -3.36877 204 182 121 1752393037
0.59457 -0.39638 -3.37848 204 182 121 1752393037
0.59629 -0.379457 -3.38825 204 182 121 1752393037
0.598019 -0.362436 -3.39808 204 182 121 1752393037
0.599759 -0.345316 -3.40796 204 182 121 1752393037
0.601509 -0.328096 -3.41791 204 182 121 1752393037
0.603268 -0.310775 -3.42791 204 182 121 1752393037
0.605039 -0.293352 -3.43796 204 182 121 1752393037
0.606819 -0.275827 -3.44808 204 182 121 1752393037
0.608611 -0.258198 -3.45826 204 182 121 1752393037
0.610412 -0.240465 -3.4685 204 182 121 1752393037
0.612225 -0.222627 -3.4788 204 182 121 1752393037
0.614048 -0.204683 -3.48916 204 182 121 1752393037
0.615882 -0.186631 -3.49958 204 182 121 1752393037
0.617727 -0.168471 -3.51007 204 182 121 1752393037
0.619584 -0.150202 -3.52061 204 182 121 1752393037
0.621451 -0.131823 -3.53122 204 182 121 1752393037
0.62333 -0.113333 -3.5419 204 182 121 1752393037
0.62522 -0.09473 -3.55264 204 182 121 1752393037
0.627122 -0.076015 -3.56345 204 182 121 1752393037
0.629035 -0.057185 -3.57432 204 182 121 1752393037
0.63096 -0.03824 -3.58525 204 182 121 1752393037
0.632897 -0.019179 -3.59626 204 182 121 1752393037
0.634845 0 -3.60733 204 182 121 1752393037
0.636806 0.019297 -3.61847 204 182 121 1752393037
0.638779 0.038714 -3.62968 204 182 121 1752393037
0.640764 0.058251 -3.64096 204 182 121 1752393037
0.642762 0.07791 -3.65231 204 182 121 1752393037
0.644771 0.097693 -3.66374 204 182 121 1752393037
0.646794 0.117599 -3.67523 204 182 121 1752393037
0.648829 0.13763 -3.68679 204 182 121 1752393037
0.650369 0.157665 -3.69554 204 182 121 1752393037
0.651881 0.177786 -3.70414 204 182 121 1752393037
0.653401 0.198 -3.71277 204 182 121 1752393037
0.654927 0.218309 -3.72144 204 182 121 1752393037
0.65646 0.238713 -3.73015 204 182 121 1752393037
0.658001 0.259213 -3.73891 204 182 121 1752393037
0.659549 0.279809 -3.7477 204 182 121 1752393037
0.661104 0.300502 -3.75654 204 182 121 1752393037
0.662667 0.321293 -3.76542 204 182 121 1752393037
0.664237 0.342183 -3.77434 204 182 121 1752393037
0.665814 0.363171 -3.7833 204 182 121 1752393037
0.667399 0.38426 -3.79231 204 182 121 1752393037
0.668992 0.40545 -3.80136 204 182 121 1752393037
0.670592 0.42674 -3.81045 204 182 121 1752393037
0.6722 0.448133 -3.81959 204 182 121 1752393037
0.673815 0.469629 -3.82877 204 182 121 1752393037
0.675438 0.491228 -3.83799 204 182 121 1752393037
0.677069 0.512931 -3.84726 204 182 121 1752393037
0.678708 0.53474 -3.85657 204 182 121 1752393037
0.680355 0.556654 -3.86593 204 182 121 1752393037
0.68201 0.578675 -3.87533 204 182 121 1752393037
0.683673 0.600804 -3.88478 204 182 121 1752393037
0.685344 0.62304 -3.89428 204 182 121 1752393037
0.527468 -1.17215 -2.93059 204 182 121 1752393037
0.528791 -1.15942 -2.93794 204 182 121 1752393037
0.53012 -1.14663 -2.94532 204 182 121 1752393037
0.531456 -1.13377 -2.95275 204 182 121 1752393037
0.532799 -1.12085 -2.96021 204 182 121 1752393037
0.534149 -1.10786 -2.96771 204 182 121 1752393037
0.535505 -1.09481 -2.97524 204 182 121 1752393037
0.536869 -1.08169 -2.98282 204 182 121 1752393037
0.538239 -1.0685 -2.99043 204 182 121 1752393037
0.539616 -1.05525 -2.99808 204 182 121 1752393037
0.541001 -1.04193 -3.00577 204 182 121 1752393037
0.542392 -1.02854 -3.0135 204 182 121 1752393037
0.543791 -1.01508 -3.02128 204 182 121 1752393037
0.545197 -1.00155 -3.02909 204 182 121 1752393037
0.54661 -0.987947 -3.03694 204 182 121 1752393037
0.548031 -0.974277 -3.04483 204 182 121 1752393037
0.549459 -0.960535 -3.05277 204 182 121 1752393037
0.550894 -0.946722 -3.06074 204 182 121 1752393037
0.552337 -0.932836 -3.06876 204 182 121 1752393037
0.553788 -0.918877 -3.07682 204 182 121 1752393037
0.555246 -0.904845 -3.08492 204 182 121 1752393037
0.556712 -0.890739 -3.09306 204 182 121 1752393037
0.558185 -0.876558 -3.10125 204 182 121 1752393037
0.559667 -0.862301 -3.10948 204 182 121 1752393037
0.561156 -0.847969 -3.11776 204 182 121 1752393037
0.562653 -0.833561 -3.12608 204 182 121 1752393037
0.564159 -0.819075 -3.13444 204 182 121 1752393037
0.565672 -0.804511 -3.14285 204 182 121 1752393037
0.567194 -0.78987 -3.1513 204 182 121 1752393037
0.568723 -0.775149 -3.1598 204 182 121 1752393037
0.570261 -0.760348 -3.16834 204 182 121 1752393037
0.571808 -0.745468 -3.17693 204 182 121 1752393037
0.573362 -0.730506 -3.18557 204 182 121 1752393037
0.574926 -0.715463 -3.19426 204 182 121 1752393037
0.576497 -0.700337 -3.20299 204 182 121 1752393037
0.578078 -0.685129 -3.21177 204 182 121 1752393037
0.579667 -0.669837 -3.2206 204 182 121 1752393037
0.581265 -0.654461 -3.22948 204 182 121 1752393037
0.582871 -0.639 -3.2384 204 182 121 1752393037
0.584487 -0.623453 -3.24738 204 182 121 1752393037
0.586111 -0.607819 -3.25641 204 182 121 1752393037
0.587745 -0.592099 -3.26548 204 182 121 1752393037
0.589388 -0.57629 -3.27461 204 182 121 1752393037
0.59104 -0.560393 -3.28379 204 182 121 1752393037
0.592701 -0.544407 -3.29302 204 182 121 1752393037
0.594372 -0.52833 -3.3023 204 182 121 1752393037
0.596052 -0.512163 -3.31163 204 182 121 1752393037
0.597741 -0.495904 -3.32102 204 182 121 1752393037
0.59944 -0.479552 -3.33046 204 182 121 1752393037
0.601149 -0.463108 -3.33996 204 182 121 1752393037
0.602868 -0.446569 -3.3495 204 182 121 1752393037
0.604596 -0.429935 -3.35911 204 182 121 1752393037
0.606335 -0.413206 -3.36877 204 182 121 1752393037
0.608083 -0.39638 -3.37848 204 182 121 1752393037
0.609842 -0.379457 -3.38825 204 182 121 1752393037
0.611611 -0.362436 -3.39808 204 182 121 1752393037
0.61339 -0.345316 -3.40796 204 182 121 1752393037
0.615179 -0.328096 -3.41791 204 182 121 1752393037
0.616979 -0.310775 -3.42791 204 182 121 1752393037
0.61879 -0.293352 -3.43796 204 182 121 1752393037
0.620611 -0.275827 -3.44808 204 182 121 1752393037
0.622443 -0.258198 -3.45826 204 182 121 1752393037
0.624285 -0.240465 -3.4685 204 182 121 1752393037
0.626139 -0.222627 -3.4788 204 182 121 1752393037
0.628004 -0.204683 -3.48916 204 182 121 1752393037
0.62988 -0.186631 -3.49958 204 182 121 1752393037
0.631767 -0.168471 -3.51007 204 182 121 1752393037
0.633665 -0.150202 -3.52061 204 182 121 1752393037
0.635575 -0.131823 -3.53122 204 182 121 1752393037
0.637496 -0.113333 -3.5419 204 182 121 1752393037
0.63943 -0.09473 -3.55264 204 182 121 1752393037
0.641374 -0.076015 -3.56345 204 182 121 1752393037
0.643331 -0.057185 -3.57432 204 182 121 1752393037
0.6453 -0.03824 -3.58525 204 182 121 1752393037
0.647281 -0.019179 -3.59626 204 182 121 1752393037
0.649191 0 -3.60687 204 182 121 1752393037
0.650664 0.019279 -3.61506 204 182 121 1752393037
0.652144 0.038646 -3.62328 204 182 121 1752393037
0.65363 0.0581 -3.63154 204 182 121 1752393037
0.655124 0.077644 -3.63983 204 182 121 1752393037
0.656624 0.097278 -3.64817 204 182 121 1752393037
0.658131 0.117001 -3.65654 204 182 121 1752393037
0.659645 0.136815 -3.66496 204 182 121 1752393037
0.661166 0.156721 -3.67341 204 182 121 1752393037
0.662694 0.176718 -3.6819 204 182 121 1752393037
0.664229 0.196809 -3.69042 204 182 121 1752393037
0.665771 0.216992 -3.69899 204 182 121 1752393037
0.667321 0.23727 -3.7076 204 182 121 1752393037
0.668877 0.257642 -3.71625 204 182 121 1752393037
0.670441 0.278109 -3.72494 204 182 121 1752393037
0.672013 0.298672 -3.73367 204 182 121 1752393037
0.673591 0.319332 -3.74244 204 182 121 1752393037
0.675178 0.340089 -3.75125 204 182 121 1752393037
0.676771 0.360945 -3.76011 204 182 121 1752393037
0.678372 0.381898 -3.769 204 182 121 1752393037
0.679981 0.402952 -3.77794 204 182 121 1752393037
0.681597 0.424105 -3.78692 204 182 121 1752393037
0.683221 0.445359 -3.79594 204 182 121 1752393037
0.684853 0.466715 -3.80501 204 182 121 1752393037
0.686492 0.488172 -3.81412 204 182 121 1752393037
0.68814 0.509733 -3.82327 204 182 121 1752393037
0.689795 0.531398 -3.83247 204 182 121 1752393037
0.691459 0.553167 -3.84171 204 182 121 1752393037
0.69313 0.575041 -3.851 204 182 121 1752393037
0.694809 0.597021 -3.86033 204 182 121 1752393037
0.696497 0.619108 -3.8697 204 182 121 1752393037
0.698193 0.641303 -3.87913 204 182 121 1752393037
0.53919 -1.17215 -2.93059 204 182 121 1752393037
0.540542 -1.15942 -2.93794 204 182 121 1752393037
0.541901 -1.14663 -2.94532 204 182 121 1752393037
0.543267 -1.13377 -2.95275 204 182 121 1752393037
0.544639 -1.12085 -2.96021 204 182 121 1752393037
0.546019 -1.10786 -2.96771 204 182 121 1752393037
0.547405 -1.09481 -2.97524 204 182 121 1752393037
0.548799 -1.08169 -2.98282 204 182 121 1752393037
0.5502 -1.0685 -2.99043 204 182 121 1752393037
0.551608 -1.05525 -2.99808 204 182 121 1752393037
0.553023 -1.04193 -3.00577 204 182 121 1752393037
0.554445 -1.02854 -3.0135 204 182 121 1752393037
0.555875 -1.01508 -3.02128 204 182 121 1752393037
0.557312 -1.00155 -3.02909 204 182 121 1752393037
0.558757 -0.987947 -3.03694 204 182 121 1752393037
0.560209 -0.974277 -3.04483 204 182 121 1752393037
0.561669 -0.960535 -3.05277 204 182 121 1752393037
0.563136 -0.946722 -3.06074 204 182 121 1752393037
0.564611 -0.932836 -3.06876 204 182 121 1752393037
0.566094 -0.918877 -3.07682 204 182 121 1752393037
0.567585 -0.904845 -3.08492 204 182 121 1752393037
0.569083 -0.890739 -3.09306 204 182 121 1752393037
0.570589 -0.876558 -3.10125 204 182 121 1752393037
0.572104 -0.862301 -3.10948 204 182 121 1752393037
0.573626 -0.847969 -3.11776 204 182 121 1752393037
0.575157 -0.833561 -3.12608 204 182 121 1752393037
0.576696 -0.819075 -3.13444 204 182 121 1752393037
0.578243 -0.804511 -3.14285 204 182 121 1752393037
0.579798 -0.78987 -3.1513 204 182 121 1752393037
0.581362 -0.775149 -3.1598 204 182 121 1752393037
0.582934 -0.760348 -3.16834 204 182 121 1752393037
0.584514 -0.745468 -3.17694 204 182 121 1752393037
0.586104 -0.730506 -3.18557 204 182 121 1752393037
0.587702 -0.715463 -3.19426 204 182 121 1752393037
0.589309 -0.700338 -3.20299 204 182 121 1752393037
0.590924 -0.685129 -3.21177 204 182 121 1752393037
0.592548 -0.669837 -3.2206 204 182 121 1752393037
0.594182 -0.654461 -3.22948 204 182 121 1752393037
0.595824 -0.639 -3.2384 204 182 121 1752393037
0.597475 -0.623453 -3.24738 204 182 121 1752393037
0.599136 -0.607819 -3.25641 204 182 121 1752393037
0.600806 -0.592099 -3.26548 204 182 121 1752393037
0.602485 -0.57629 -3.27461 204 182 121 1752393037
0.604174 -0.560393 -3.28379 204 182 121 1752393037
0.605872 -0.544407 -3.29302 204 182 121 1752393037
0.60758 -0.52833 -3.3023 204 182 121 1752393037
0.609297 -0.512163 -3.31163 204 182 121 1752393037
0.611024 -0.495904 -3.32102 204 182 121 1752393037
0.612761 -0.479552 -3.33046 204 182 121 1752393037
0.614508 -0.463108 -3.33996 204 182 121 1752393037
0.616265 -0.446569 -3.3495 204 182 121 1752393037
0.618032 -0.429935 -3.35911 204 182 121 1752393037
0.619809 -0.413206 -3.36877 204 182 121 1752393037
0.621596 -0.39638 -3.37848 204 182 121 1752393037
0.623394 -0.379457 -3.38825 204 182 121 1752393037
0.625202 -0.362436 -3.39808 204 182 121 1752393037
0.627021 -0.345316 -3.40796 204 182 121 1752393037
0.62885 -0.328096 -3.41791 204 182 121 1752393037
0.63069 -0.310775 -3.42791 204 182 121 1752393037
0.63254 -0.293352 -3.43796 204 182 121 1752393037
0.634402 -0.275827 -3.44808 204 182 121 1752393037
0.636275 -0.258198 -3.45826 204 182 121 1752393037
0.638158 -0.240465 -3.4685 204 182 121 1752393037
0.640053 -0.222627 -3.4788 204 182 121 1752393037
0.641959 -0.204683 -3.48916 204 182 121 1752393037
0.643877 -0.186631 -3.49958 204 182 121 1752393037
0.645806 -0.168471 -3.51007 204 182 121 1752393037
0.647747 -0.150202 -3.52061 204 182 121 1752393037
0.649503 -0.131783 -3.53016 204 182 121 1752393037
0.650946 -0.113208 -3.538 204 182 121 1752393037
0.652395 -0.09455 -3.54588 204 182 121 1752393037
0.65385 -0.075809 -3.55379 204 182 121 1752393037
0.655312 -0.056984 -3.56173 204 182 121 1752393037
0.65678 -0.038074 -3.56971 204 182 121 1752393037
0.658255 -0.01908 -3.57773 204 182 121 1752393037
0.659737 0 -3.58578 204 182 121 1752393037
0.661225 0.019166 -3.59387 204 182 121 1752393037
0.66272 0.038419 -3.602 204 182 121 1752393037
0.664222 0.057758 -3.61016 204 182 121 1752393037
0.66573 0.077186 -3.61836 204 182 121 1752393037
0.667246 0.096702 -3.6266 204 182 121 1752393037
0.668768 0.116308 -3.63487 204 182 121 1752393037
0.670298 0.136002 -3.64318 204 182 121 1752393037
0.671834 0.155788 -3.65153 204 182 121 1752393037
0.673378 0.175664 -3.65992 204 182 121 1752393037
0.674928 0.195631 -3.66835 204 182 121 1752393037
0.676486 0.215691 -3.67682 204 182 121 1752393037
0.678051 0.235844 -3.68532 204 182 121 1752393037
0.679623 0.25609 -3.69387 204 182 121 1752393037
0.681203 0.27643 -3.70245 204 182 121 1752393037
0.682789 0.296865 -3.71108 204 182 121 1752393037
0.684383 0.317395 -3.71974 204 182 121 1752393037
0.685985 0.338022 -3.72845 204 182 121 1752393037
0.687594 0.358745 -3.73719 204 182 121 1752393037
0.689211 0.379566 -3.74598 204 182 121 1752393037
0.690835 0.400484 -3.75481 204 182 121 1752393037
0.692467 0.421502 -3.76368 204 182 121 1752393037
0.694107 0.442619 -3.77259 204 182 121 1752393037
0.695755 0.463836 -3.78154 204 182 121 1752393037
0.69741 0.485155 -3.79054 204 182 121 1752393037
0.699073 0.506575 -3.79958 204 182 121 1752393037
0.700744 0.528097 -3.80867 204 182 121 1752393037
0.702424 0.549723 -3.81779 204 182 121 1752393037
0.704111 0.571452 -3.82696 204 182 121 1752393037
0.705806 0.593286 -3.83618 204 182 121 1752393037
0.70751 0.615226 -3.84544 204 182 121 1752393037
0.709222 0.637272 -3.85474 204 182 121 1752393037
0.550911 -1.17215 -2.93059 204 182 121 1752393037
0.552293 -1.15942 -2.93794 204 182 121 1752393037
0.553681 -1.14663 -2.94532 204 182 121 1752393037
0.555077 -1.13377 -2.95275 204 182 121 1752393037
0.556479 -1.12085 -2.96021 204 182 121 1752393037
0.557889 -1.10786 -2.96771 204 182 121 1752393037
0.559306 -1.09481 -2.97524 204 182 121 1752393037
0.560729 -1.08169 -2.98282 204 182 121 1752393037
0.562161 -1.0685 -2.99043 204 182 121 1752393037
0.563599 -1.05525 -2.99808 204 182 121 1752393037
0.565045 -1.04193 -3.00577 204 182 121 1752393037
0.566499 -1.02854 -3.0135 204 182 121 1752393037
0.567959 -1.01508 -3.02128 204 182 121 1752393037
0.569428 -1.00155 -3.02909 204 182 121 1752393037
0.570904 -0.987947 -3.03694 204 182 121 1752393037
0.572388 -0.974277 -3.04483 204 182 121 1752393037
0.573879 -0.960535 -3.05277 204 182 121 1752393037
0.575378 -0.946722 -3.06074 204 182 121 1752393037
0.576885 -0.932836 -3.06876 204 182 121 1752393037
0.5784 -0.918877 -3.07682 204 182 121 1752393037
0.579923 -0.904845 -3.08492 204 182 121 1752393037
0.581454 -0.890739 -3.09306 204 182 121 1752393037
0.582994 -0.876558 -3.10125 204 182 121 1752393037
0.584541 -0.862301 -3.10948 204 182 121 1752393037
0.586096 -0.847969 -3.11776 204 182 121 1752393037
0.58766 -0.833561 -3.12608 204 182 121 1752393037
0.589232 -0.819075 -3.13444 204 182 121 1752393037
0.590813 -0.804511 -3.14285 204 182 121 1752393037
0.592402 -0.78987 -3.1513 204 182 121 1752393037
0.594 -0.775149 -3.1598 204 182 121 1752393037
0.595606 -0.760348 -3.16834 204 182 121 1752393037
0.597221 -0.745468 -3.17694 204 182 121 1752393037
0.598845 -0.730506 -3.18557 204 182 121 1752393037
0.600478 -0.715463 -3.19426 204 182 121 1752393037
0.602119 -0.700337 -3.20299 204 182 121 1752393037
0.60377 -0.685129 -3.21177 204 182 121 1752393037
0.60543 -0.669837 -3.2206 204 182 121 1752393037
0.607099 -0.654461 -3.22948 204 182 121 1752393037
0.608777 -0.639 -3.2384 204 182 121 1752393037
0.610464 -0.623453 -3.24738 204 182 121 1752393037
0.612161 -0.607819 -3.25641 204 182 121 1752393037
0.613867 -0.592099 -3.26548 204 182 121 1752393037
0.615583 -0.57629 -3.27461 204 182 121 1752393037
0.617308 -0.560393 -3.28379 204 182 121 1752393037
0.619043 -0.544407 -3.29302 204 182 121 1752393037
0.620788 -0.52833 -3.3023 204 182 121 1752393037
0.622543 -0.512163 -3.31164 204 182 121 1752393037
0.624308 -0.495904 -3.32102 204 182 121 1752393037
0.626082 -0.479552 -3.33046 204 182 121 1752393037
0.627867 -0.463108 -3.33996 204 182 121 1752393037
0.629662 -0.446569 -3.3495 204 182 121 1752393037
0.631467 -0.429935 -3.35911 204 182 121 1752393037
0.633283 -0.413206 -3.36877 204 182 121 1752393037
0.635109 -0.39638 -3.37848 204 182 121 1752393037
0.636946 -0.379457 -3.38825 204 182 121 1752393037
0.638793 -0.362436 -3.39808 204 182 121 1752393037
0.640652 -0.345316 -3.40796 204 182 121 1752393037
0.642521 -0.328096 -3.41791 204 182 121 1752393037
0.6444 -0.310775 -3.42791 204 182 121 1752393037
0.646291 -0.293352 -3.43796 204 182 121 1752393037
0.648193 -0.275827 -3.44808 204 182 121 1752393037
0.649803 -0.258078 -3.45665 204 182 121 1752393037
0.651216 -0.240165 -3.46416 204 182 121 1752393037
0.652635 -0.222174 -3.47171 204 182 121 1752393037
0.65406 -0.204104 -3.47929 204 182 121 1752393037
0.655492 -0.185955 -3.48691 204 182 121 1752393037
0.65693 -0.167727 -3.49456 204 182 121 1752393037
0.658374 -0.149418 -3.50224 204 182 121 1752393037
0.659825 -0.131029 -3.50996 204 182 121 1752393037
0.661282 -0.112559 -3.51771 204 182 121 1752393037
0.662745 -0.094006 -3.52549 204 182 121 1752393037
0.664215 -0.075372 -3.53331 204 182 121 1752393037
0.665691 -0.056655 -3.54116 204 182 121 1752393037
0.667174 -0.037854 -3.54905 204 182 121 1752393037
0.668664 -0.018969 -3.55698 204 182 121 1752393037
0.67016 0 -3.56494 204 182 121 1752393037
0.671663 0.019054 -3.57293 204 182 121 1752393037
0.673173 0.038194 -3.58096 204 182 121 1752393037
0.67469 0.05742 -3.58903 204 182 121 1752393037
0.676213 0.076733 -3.59713 204 182 121 1752393037
0.677743 0.096134 -3.60527 204 182 121 1752393037
0.67928 0.115622 -3.61345 204 182 121 1752393037
0.680825 0.135199 -3.62167 204 182 121 1752393037
0.682376 0.154865 -3.62992 204 182 121 1752393037
0.683934 0.174622 -3.63821 204 182 121 1752393037
0.6855 0.194468 -3.64654 204 182 121 1752393037
0.687073 0.214406 -3.6549 204 182 121 1752393037
0.688652 0.234435 -3.66331 204 182 121 1752393037
0.69024 0.254556 -3.67175 204 182 121 1752393037
0.691834 0.274771 -3.68023 204 182 121 1752393037
0.693436 0.295079 -3.68875 204 182 121 1752393037
0.695045 0.315481 -3.69731 204 182 121 1752393037
0.696662 0.335979 -3.70591 204 182 121 1752393037
0.698286 0.356572 -3.71455 204 182 121 1752393037
0.699918 0.377261 -3.72323 204 182 121 1752393037
0.701558 0.398047 -3.73196 204 182 121 1752393037
0.703205 0.418931 -3.74072 204 182 121 1752393037
0.70486 0.439913 -3.74952 204 182 121 1752393037
0.706523 0.460994 -3.75837 204 182 121 1752393037
0.708193 0.482174 -3.76725 204 182 121 1752393037
0.709872 0.503455 -3.77618 204 182 121 1752393037
0.711559 0.524837 -3.78516 204 182 121 1752393037
0.713253 0.546321 -3.79417 204 182 121 1752393037
0.714956 0.567908 -3.80323 204 182 121 1752393037
0.716667 0.589598 -3.81233 204 182 121 1752393037
0.718386 0.611392 -3.82147 204 182 121 1752393037
0.720113 0.633291 -3.83066 204 182 121 1752393037
0.721848 0.655295 -3.83989 204 182 121 1752393037
0.562633 -1.17215 -2.93059 204 182 121 1752393037
0.564044 -1.15942 -2.93794 204 182 121 1752393037
0.565462 -1.14663 -2.94532 204 182 121 1752393037
0.566887 -1.13377 -2.95275 204 182 121 1752393037
0.568319 -1.12085 -2.96021 204 182 121 1752393037
0.569759 -1.10786 -2.96771 204 182 121 1752393037
0.571206 -1.09481 -2.97524 204 182 121 1752393037
0.57266 -1.08169 -2.98282 204 182 121 1752393037
0.574122 -1.0685 -2.99043 204 182 121 1752393037
0.575591 -1.05525 -2.99808 204 182 121 1752393037
0.577067 -1.04193 -3.00577 204 182 121 1752393037
0.578552 -1.02854 -3.0135 204 182 121 1752393037
0.580044 -1.01508 -3.02128 204 182 121 1752393037
0.581543 -1.00155 -3.02909 204 182 121 1752393037
0.583051 -0.987947 -3.03694 204 182 121 1752393037
0.584566 -0.974277 -3.04483 204 182 121 1752393037
0.586089 -0.960535 -3.05277 204 182 121 1752393037
0.58762 -0.946722 -3.06074 204 182 121 1752393037
0.589159 -0.932836 -3.06876 204 182 121 1752393037
0.590707 -0.918877 -3.07682 204 182 121 1752393037
0.592262 -0.904845 -3.08492 204 182 121 1752393037
0.593826 -0.890739 -3.09306 204 182 121 1752393037
0.595398 -0.876558 -3.10125 204 182 121 1752393037
0.596978 -0.862301 -3.10948 204 182 121 1752393037
0.598566 -0.847969 -3.11776 204 182 121 1752393037
0.600164 -0.833561 -3.12608 204 182 121 1752393037
0.601769 -0.819075 -3.13444 204 182 121 1752393037
0.603384 -0.804511 -3.14285 204 182 121 1752393037
0.605006 -0.78987 -3.1513 204 182 121 1752393037
0.606638 -0.775149 -3.1598 204 182 121 1752393037
0.608279 -0.760348 -3.16834 204 182 121 1752393037
0.609928 -0.745468 -3.17693 204 182 121 1752393037
0.611586 -0.730506 -3.18557 204 182 121 1752393037
0.613254 -0.715463 -3.19426 204 182 121 1752393037
0.61493 -0.700337 -3.20299 204 182 121 1752393037
