ply
format ascii 1.0
comment PCL generated
obj_info is_cyberware_data 0
obj_info is_mesh 0
obj_info is_warped 0
obj_info is_interlaced 0
obj_info num_cols 23912
obj_info num_rows 1
obj_info echo_rgb_offset_x 0
obj_info echo_rgb_offset_y 0
obj_info echo_rgb_offset_z 0
obj_info echo_rgb_frontfocus 0.0
obj_info echo_rgb_backfocus 0.0
obj_info echo_rgb_pixelsize 0.0
obj_info echo_rgb_centerpixel 0
obj_info echo_frames 1
obj_info echo_lgincr 0.0
element vertex 944
property float x
property float y
property float z
property uchar red
property uchar green
property uchar blue
property uint label
end_header
-1.40045 0.719675 -3.64726 204 182 121 1752393037
-1.40423 0.741124 -3.65712 204 182 121 1752393037
-1.40804 0.762689 -3.66703 204 182 121 1752393037
-1.06636 -1.12248 -2.80641 204 182 121 1752393037
-1.06858 -1.10982 -2.81225 204 182 121 1752393037
-1.0708 -1.0971 -2.8181 204 182 121 1752393037
-1.07304 -1.08433 -2.82399 204 182 121 1752393037
-1.07528 -1.07151 -2.82989 204 182 121 1752393037
-1.07754 -1.05863 -2.83583 204 182 121 1752393037
-1.0798 -1.0457 -2.84178 204 182 121 1752393037
-1.08207 -1.03272 -2.84776 204 182 121 1752393037
-1.08436 -1.01968 -2.85377 204 182 121 1752393037
-1.08665 -1.00658 -2.85981 204 182 121 1752393037
-1.08895 -0.993428 -2.86586 204 182 121 1752393037
-1.09126 -0.980221 -2.87195 204 182 121 1752393037
-1.09358 -0.966958 -2.87806 204 182 121 1752393037
-1.09591 -0.953638 -2.88419 204 182 121 1752393037
-1.09826 -0.940262 -2.89035 204 182 121 1752393037
-1.10061 -0.926828 -2.89654 204 182 121 1752393037
-1.10297 -0.913336 -2.90276 204 182 121 1752393037
-1.10534 -0.899786 -2.909 204 182 121 1752393037
-1.10772 -0.886178 -2.91527 204 182 121 1752393037
-1.11012 -0.872512 -2.92156 204 182 121 1752393037
-1.11252 -0.858786 -2.92789 204 182 121 1752393037
-1.11493 -0.845 -2.93424 204 182 121 1752393037
-1.11735 -0.831155 -2.94062 204 182 121 1752393037
-1.11979 -0.817249 -2.94702 204 182 121 1752393037
-1.12223 -0.803282 -2.95345 204 182 121 1752393037
-1.12469 -0.789255 -2.95992 204 182 121 1752393037
-1.12715 -0.775166 -2.96641 204 182 121 1752393037
-1.12963 -0.761015 -2.97293 204 182 121 1752393037
-1.13212 -0.746801 -2.97947 204 182 121 1752393037
-1.13462 -0.732525 -2.98605 204 182 121 1752393037
-1.13713 -0.718186 -2.99266 204 182 121 1752393037
-1.13965 -0.703783 -2.99929 204 182 121 1752393037
-1.14218 -0.689316 -3.00595 204 182 121 1752393037
-1.14472 -0.674785 -3.01265 204 182 121 1752393037
-1.14728 -0.660189 -3.01937 204 182 121 1752393037
-1.14985 -0.645528 -3.02613 204 182 121 1752393037
-1.15242 -0.6308 -3.03291 204 182 121 1752393037
-1.15501 -0.616007 -3.03973 204 182 121 1752393037
-1.15761 -0.601147 -3.04657 204 182 121 1752393037
-1.16023 -0.58622 -3.05345 204 182 121 1752393037
-1.16285 -0.571225 -3.06035 204 182 121 1752393037
-1.16549 -0.556163 -3.06729 204 182 121 1752393037
-1.16814 -0.541032 -3.07426 204 182 121 1752393037
-1.1708 -0.525832 -3.08126 255 255 255 1752393037
-1.17347 -0.510562 -3.0883 255 255 255 1752393037
-1.17615 -0.495223 -3.09537 255 255 255 1752393037
-1.17885 -0.479814 -3.10246 255 255 255 1752393037
-1.18156 -0.464333 -3.1096 255 255 255 1752393037
-1.18428 -0.448781 -3.11676 255 255 255 1752393037
-1.18702 -0.433158 -3.12396 255 255 255 1752393037
-1.18977 -0.417462 -3.13119 255 255 255 1752393037
-1.19253 -0.401693 -3.13845 255 255 255 1752393037
-1.1953 -0.385851 -3.14575 255 255 255 1752393037
-1.19808 -0.369935 -3.15308 255 255 255 1752393037
-1.20088 -0.353945 -3.16045 255 255 255 1752393037
-1.2037 -0.33788 -3.16785 255 255 255 1752393037
-1.20652 -0.321739 -3.17528 255 255 255 1752393037
-1.20936 -0.305523 -3.18275 255 255 255 1752393037
-1.21221 -0.289229 -3.19026 255 255 255 1752393037
-1.21508 -0.272859 -3.1978 255 255 255 1752393037
-1.21796 -0.256412 -3.20538 255 255 255 1752393037
-1.22085 -0.239886 -3.21299 255 255 255 1752393037
-1.22376 -0.223282 -3.22064 255 255 255 1752393037
-1.22668 -0.206598 -3.22832 255 255 255 1752393037
-1.22961 -0.189834 -3.23605 255 255 255 1752393037
-1.23256 -0.172991 -3.2438 255 255 255 1752393037
-1.23552 -0.156066 -3.2516 255 255 255 1752393037
-1.2385 -0.139059 -3.25944 255 255 255 1752393037
-1.24149 -0.121971 -3.26731 255 255 255 1752393037
-1.24449 -0.1048 -3.27522 255 255 255 1752393037
-1.24751 -0.087545 -3.28317 255 255 255 1752393037
-1.25055 -0.070206 -3.29115 255 255 255 1752393037
-1.2536 -0.052783 -3.29918 255 255 255 1752393037
-1.25666 -0.035275 -3.30725 255 255 255 1752393037
-1.25974 -0.017681 -3.31535 255 255 255 1752393037
-1.26284 0 -3.3235 255 255 255 1752393037
-1.26595 0.017768 -3.33168 255 255 255 1752393037
-1.26907 0.035623 -3.33991 204 182 121 1752393037
-1.27221 0.053567 -3.34817 204 182 121 1752393037
-1.27537 0.0716 -3.35648 204 182 121 1752393037
-1.27854 0.089722 -3.36483 204 182 121 1752393037
-1.28173 0.107935 -3.37322 204 182 121 1752393037
-1.28493 0.126239 -3.38165 204 182 121 1752393037
-1.28815 0.144635 -3.39012 204 182 121 1752393037
-1.29139 0.163123 -3.39864 204 182 121 1752393037
-1.29464 0.181704 -3.4072 204 182 121 1752393037
-1.29791 0.200379 -3.4158 204 182 121 1752393037
-1.3012 0.219149 -3.42445 204 182 121 1752393037
-1.3045 0.238014 -3.43314 204 182 121 1752393037
-1.30782 0.256975 -3.44187 204 182 121 1752393037
-1.31115 0.276032 -3.45065 204 182 121 1752393037
-1.31451 0.295188 -3.45948 204 182 121 1752393037
-1.31788 0.314441 -3.46834 204 182 121 1752393037
-1.32126 0.333793 -3.47726 204 182 121 1752393037
-1.32467 0.353245 -3.48622 204 182 121 1752393037
-1.32809 0.372798 -3.49523 204 182 121 1752393037
-1.33153 0.392452 -3.50428 204 182 121 1752393037
-1.33499 0.412207 -3.51338 204 182 121 1752393037
-1.33847 0.432066 -3.52253 204 182 121 1752393037
-1.34196 0.452029 -3.53173 204 182 121 1752393037
-1.34547 0.472096 -3.54097 204 182 121 1752393037
-1.349 0.492268 -3.55026 204 182 121 1752393037
-1.35255 0.512547 -3.5596 204 182 121 1752393037
-1.35612 0.532932 -3.569 204 182 121 1752393037
-1.35971 0.553425 -3.57844 204 182 121 1752393037
-1.36331 0.574027 -3.58793 204 182 121 1752393037
-1.36694 0.594739 -3.59747 204 182 121 1752393037
-1.37058 0.615561 -3.60706 204 182 121 1752393037
-1.37425 0.636494 -3.6167 204 182 121 1752393037
-1.37793 0.65754 -3.6264 204 182 121 1752393037
-1.38164 0.678699 -3.63614 204 182 121 1752393037
-1.38536 0.699971 -3.64594 204 182 121 1752393037
-1.3891 0.721359 -3.6558 204 182 121 1752393037
-1.39287 0.742863 -3.6657 204 182 121 1752393037
-1.39665 0.764483 -3.67566 204 182 121 1752393037
-1.05703 -1.12451 -2.81146 204 182 121 1752393037
-1.05924 -1.11182 -2.81732 204 182 121 1752393037
-1.06145 -1.09909 -2.8232 204 182 121 1752393037
-1.06367 -1.0863 -2.8291 204 182 121 1752393037
-1.06589 -1.07345 -2.83503 204 182 121 1752393037
-1.06813 -1.06056 -2.84098 204 182 121 1752393037
-1.07038 -1.04761 -2.84696 204 182 121 1752393037
-1.07264 -1.0346 -2.85297 204 182 121 1752393037
-1.07491 -1.02154 -2.85899 204 182 121 1752393037
-1.07718 -1.00842 -2.86505 204 182 121 1752393037
-1.07947 -0.995254 -2.87113 204 182 121 1752393037
-1.08176 -0.982027 -2.87724 204 182 121 1752393037
-1.08407 -0.968743 -2.88337 204 182 121 1752393037
-1.08639 -0.955402 -2.88953 204 182 121 1752393037
-1.08871 -0.942005 -2.89571 204 182 121 1752393037
-1.09105 -0.928549 -2.90192 204 182 121 1752393037
-1.09339 -0.915036 -2.90816 204 182 121 1752393037
-1.09575 -0.901465 -2.91443 204 182 121 1752393037
-1.09811 -0.887835 -2.92072 204 182 121 1752393037
-1.10049 -0.874146 -2.92704 204 182 121 1752393037
-1.10287 -0.860398 -2.93338 204 182 121 1752393037
-1.10527 -0.84659 -2.93976 204 182 121 1752393037
-1.10768 -0.832722 -2.94616 204 182 121 1752393037
-1.1101 -0.818794 -2.95259 204 182 121 1752393037
-1.11252 -0.804804 -2.95905 204 182 121 1752393037
-1.11496 -0.790753 -2.96554 204 182 121 1752393037
-1.11741 -0.776641 -2.97205 204 182 121 1752393037
-1.11987 -0.762466 -2.9786 204 182 121 1752393037
-1.12234 -0.748228 -2.98517 204 182 121 1752393037
-1.12483 -0.733928 -2.99177 204 182 121 1752393037
-1.12732 -0.719565 -2.9984 204 182 121 1752393037
-1.12982 -0.705137 -3.00506 204 182 121 1752393037
-1.13234 -0.690645 -3.01175 204 182 121 1752393037
-1.13486 -0.676089 -3.01847 204 182 121 1752393037
-1.1374 -0.661468 -3.02522 204 182 121 1752393037
-1.13995 -0.646781 -3.032 204 182 121 1752393037
-1.14251 -0.632028 -3.03881 204 182 121 1752393037
-1.14508 -0.617208 -3.04565 204 182 121 1752393037
-1.14767 -0.602322 -3.05252 204 182 121 1752393037
-1.15026 -0.587368 -3.05943 204 182 121 1752393037
-1.15287 -0.572347 -3.06636 204 182 121 1752393037
-1.15549 -0.557257 -3.07333 204 182 121 1752393037
-1.15812 -0.542099 -3.08033 204 182 121 1752393037
-1.16076 -0.526871 -3.08735 204 182 121 1752393037
-1.16342 -0.511574 -3.09442 204 182 121 1752393037
-1.16609 -0.496206 -3.10151 204 182 121 1752393037
-1.16876 -0.480768 -3.10864 255 255 255 1752393037
-1.17146 -0.465259 -3.1158 255 255 255 1752393037
-1.17416 -0.449679 -3.12299 255 255 255 1752393037
-1.17688 -0.434026 -3.13022 255 255 255 1752393037
-1.17961 -0.4183 -3.13748 255 255 255 1752393037
-1.18235 -0.402502 -3.14477 255 255 255 1752393037
-1.1851 -0.386629 -3.1521 255 255 255 1752393037
-1.18787 -0.370683 -3.15946 255 255 255 1752393037
-1.19065 -0.354662 -3.16685 255 255 255 1752393037
-1.19344 -0.338566 -3.17428 255 255 255 1752393037
-1.19625 -0.322394 -3.18175 255 255 255 1752393037
-1.19907 -0.306146 -3.18925 255 255 255 1752393037
-1.20191 -0.289821 -3.19679 255 255 255 1752393037
-1.20475 -0.273419 -3.20436 255 255 255 1752393037
-1.20761 -0.256939 -3.21197 255 255 255 1752393037
-1.21049 -0.240381 -3.21961 255 255 255 1752393037
-1.21337 -0.223743 -3.22729 255 255 255 1752393037
-1.21628 -0.207026 -3.23501 255 255 255 1752393037
-1.21919 -0.190229 -3.24276 255 255 255 1752393037
-1.22212 -0.173351 -3.25056 255 255 255 1752393037
-1.22506 -0.156391 -3.25838 255 255 255 1752393037
-1.22802 -0.13935 -3.26625 255 255 255 1752393037
-1.231 -0.122226 -3.27416 255 255 255 1752393037
-1.23398 -0.10502 -3.2821 255 255 255 1752393037
-1.23698 -0.087729 -3.29008 255 255 255 1752393037
-1.24 -0.070355 -3.2981 255 255 255 1752393037
-1.24303 -0.052895 -3.30616 255 255 255 1752393037
-1.24607 -0.03535 -3.31426 255 255 255 1752393037
-1.24913 -0.017718 -3.3224 255 255 255 1752393037
-1.25221 0 -3.33058 255 255 255 1752393037
-1.2553 0.017806 -3.3388 204 182 121 1752393037
-1.2584 0.035699 -3.34706 204 182 121 1752393037
-1.26153 0.053682 -3.35536 204 182 121 1752393037
-1.26466 0.071754 -3.36371 204 182 121 1752393037
-1.26782 0.089916 -3.37209 204 182 121 1752393037
-1.27098 0.108169 -3.38052 204 182 121 1752393037
-1.27417 0.126513 -3.38898 204 182 121 1752393037
-1.27737 0.144949 -3.3975 204 182 121 1752393037
-1.28058 0.163479 -3.40605 204 182 121 1752393037
-1.28382 0.182101 -3.41465 204 182 121 1752393037
-1.28706 0.200819 -3.42329 204 182 121 1752393037
-1.29033 0.219631 -3.43197 204 182 121 1752393037
-1.29361 0.238538 -3.4407 204 182 121 1752393037
-1.29691 0.257542 -3.44947 204 182 121 1752393037
-1.30023 0.276644 -3.45829 204 182 121 1752393037
-1.30356 0.295843 -3.46715 204 182 121 1752393037
-1.30691 0.315141 -3.47606 204 182 121 1752393037
-1.31027 0.334538 -3.48502 204 182 121 1752393037
-1.31366 0.354035 -3.49402 204 182 121 1752393037
-1.31706 0.373634 -3.50307 204 182 121 1752393037
-1.32048 0.393334 -3.51216 204 182 121 1752393037
-1.32392 0.413137 -3.5213 204 182 121 1752393037
-1.32737 0.433043 -3.53049 204 182 121 1752393037
-1.33084 0.453053 -3.53973 204 182 121 1752393037
-1.33433 0.473168 -3.54902 204 182 121 1752393037
-1.33784 0.493389 -3.55835 204 182 121 1752393037
-1.34137 0.513717 -3.56773 204 182 121 1752393037
-1.34492 0.534152 -3.57717 204 182 121 1752393037
-1.34848 0.554696 -3.58665 204 182 121 1752393037
-1.35207 0.575349 -3.59619 204 182 121 1752393037
-1.35567 0.596112 -3.60577 204 182 121 1752393037
-1.3593 0.616986 -3.61541 204 182 121 1752393037
-1.36294 0.637971 -3.6251 204 182 121 1752393037
-1.3666 0.65907 -3.63484 204 182 121 1752393037
-1.37028 0.680282 -3.64463 204 182 121 1752393037
-1.37398 0.701609 -3.65447 204 182 121 1752393037
-1.37771 0.723051 -3.66437 204 182 121 1752393037
-1.38145 0.74461 -3.67432 204 182 121 1752393037
-1.04768 -1.12653 -2.81653 204 182 121 1752393037
-1.04986 -1.11383 -2.82241 204 182 121 1752393037
-1.05206 -1.10108 -2.82831 204 182 121 1752393037
-1.05426 -1.08827 -2.83423 204 182 121 1752393037
-1.05647 -1.07541 -2.84018 204 182 121 1752393037
-1.0587 -1.06249 -2.84616 204 182 121 1752393037
-1.06093 -1.04952 -2.85216 204 182 121 1752393037
-1.06317 -1.03649 -2.85819 204 182 121 1752393037
-1.06542 -1.02341 -2.86424 204 182 121 1752393037
-1.06768 -1.01028 -2.87031 204 182 121 1752393037
-1.06995 -0.997087 -2.87642 204 182 121 1752393037
-1.07223 -0.983839 -2.88255 204 182 121 1752393037
-1.07452 -0.970534 -2.8887 204 182 121 1752393037
-1.07682 -0.957173 -2.89488 204 182 121 1752393037
-1.07913 -0.943754 -2.90109 204 182 121 1752393037
-1.08145 -0.930277 -2.90733 204 182 121 1752393037
-1.08378 -0.916743 -2.91359 204 182 121 1752393037
-1.08612 -0.90315 -2.91987 204 182 121 1752393037
-1.08846 -0.889498 -2.92619 204 182 121 1752393037
-1.09082 -0.875787 -2.93253 204 182 121 1752393037
-1.09319 -0.862017 -2.9389 204 182 121 1752393037
-1.09557 -0.848187 -2.9453 204 182 121 1752393037
-1.09797 -0.834296 -2.95173 204 182 121 1752393037
-1.10037 -0.820344 -2.95818 204 182 121 1752393037
-1.10278 -0.806332 -2.96467 204 182 121 1752393037
-1.1052 -0.792257 -2.97118 204 182 121 1752393037
-1.10763 -0.778121 -2.97772 204 182 121 1752393037
-1.11007 -0.763923 -2.98429 204 182 121 1752393037
-1.11253 -0.749661 -2.99088 204 182 121 1752393037
-1.11499 -0.735337 -2.99751 204 182 121 1752393037
-1.11747 -0.720948 -3.00417 204 182 121 1752393037
-1.11996 -0.706496 -3.01085 204 182 121 1752393037
-1.12246 -0.69198 -3.01757 204 182 121 1752393037
-1.12496 -0.677398 -3.02431 204 182 121 1752393037
-1.12749 -0.662751 -3.03109 204 182 121 1752393037
-1.13002 -0.648038 -3.0379 204 182 121 1752393037
-1.13256 -0.633259 -3.04473 204 182 121 1752393037
-1.13512 -0.618414 -3.0516 204 182 121 1752393037
-1.13768 -0.603501 -3.0585 204 182 121 1752393037
-1.14026 -0.588521 -3.06543 204 182 121 1752393037
-1.14285 -0.573472 -3.07239 204 182 121 1752393037
-1.14545 -0.558356 -3.07939 204 182 121 1752393037
-1.14806 -0.54317 -3.08641 204 182 121 1752393037
-1.15069 -0.527914 -3.09347 204 182 121 1752393037
-1.15333 -0.512589 -3.10056 204 182 121 1752393037
-1.15597 -0.497194 -3.10768 204 182 121 1752393037
-1.15864 -0.481727 -3.11484 204 182 121 1752393037
-1.16131 -0.466189 -3.12203 204 182 121 1752393037
-1.164 -0.450579 -3.12925 204 182 121 1752393037
-1.16669 -0.434897 -3.1365 204 182 121 1752393037
-1.16941 -0.419142 -3.14379 255 255 255 1752393037
-1.17213 -0.403314 -3.15111 255 255 255 1752393037
-1.17487 -0.387411 -3.15847 255 255 255 1752393037
-1.17762 -0.371435 -3.16586 255 255 255 1752393037
-1.18038 -0.355383 -3.17329 255 255 255 1752393037
-1.18315 -0.339256 -3.18075 255 255 255 1752393037
-1.18594 -0.323052 -3.18824 255 255 255 1752393037
-1.18874 -0.306772 -3.19578 255 255 255 1752393037
-1.19156 -0.290416 -3.20334 255 255 255 1752393037
-1.19439 -0.273981 -3.21094 255 255 255 1752393037
-1.19723 -0.257468 -3.21858 255 255 255 1752393037
-1.20008 -0.240877 -3.22626 255 255 255 1752393037
-1.20295 -0.224206 -3.23397 255 255 255 1752393037
-1.20583 -0.207455 -3.24172 255 255 255 1752393037
-1.20873 -0.190624 -3.24951 255 255 255 1752393037
-1.21164 -0.173712 -3.25733 255 255 255 1752393037
-1.21457 -0.156718 -3.2652 255 255 255 1752393037
-1.2175 -0.139642 -3.27309 255 255 255 1752393037
-1.22046 -0.122483 -3.28103 255 255 255 1752393037
-1.22342 -0.105241 -3.28901 255 255 255 1752393037
-1.22641 -0.087914 -3.29703 255 255 255 1752393037
-1.2294 -0.070503 -3.30508 255 255 255 1752393037
-1.23241 -0.053007 -3.31317 255 255 255 1752393037
-1.23544 -0.035425 -3.32131 255 255 255 1752393037
-1.23848 -0.017756 -3.32948 255 255 255 1752393037
-1.24153 0 -3.3377 255 255 255 1752393037
-1.2446 0.017844 -3.34595 204 182 121 1752393037
-1.24769 0.035776 -3.35425 204 182 121 1752393037
-1.25079 0.053798 -3.36259 204 182 121 1752393037
-1.25391 0.071909 -3.37096 204 182 121 1752393037
-1.25704 0.090111 -3.37938 204 182 121 1752393037
-1.26019 0.108403 -3.38785 204 182 121 1752393037
-1.26335 0.126788 -3.39635 204 182 121 1752393037
-1.26653 0.145265 -3.4049 204 182 121 1752393037
-1.26973 0.163836 -3.41349 204 182 121 1752393037
-1.27294 0.1825 -3.42213 204 182 121 1752393037
-1.27617 0.20126 -3.43081 204 182 121 1752393037
-1.27941 0.220114 -3.43953 204 182 121 1752393037
-1.28267 0.239065 -3.4483 204 182 121 1752393037
-1.28595 0.258112 -3.45711 204 182 121 1752393037
-1.28925 0.277257 -3.46596 204 182 121 1752393037
-1.29256 0.296501 -3.47487 204 182 121 1752393037
-1.29589 0.315843 -3.48381 204 182 121 1752393037
-1.29923 0.335286 -3.49281 204 182 121 1752393037
-1.3026 0.354829 -3.50185 204 182 121 1752393037
-1.30598 0.374474 -3.51094 204 182 121 1752393037
-1.30938 0.39422 -3.52008 204 182 121 1752393037
-1.31279 0.41407 -3.52926 204 182 121 1752393037
-1.31622 0.434024 -3.53849 204 182 121 1752393037
-1.31968 0.454082 -3.54777 204 182 121 1752393037
-1.32315 0.474246 -3.5571 204 182 121 1752393037
-1.32663 0.494516 -3.56647 204 182 121 1752393037
-1.33014 0.514893 -3.5759 204 182 121 1752393037
-1.33367 0.535378 -3.58538 204 182 121 1752393037
-1.33721 0.555973 -3.59491 204 182 121 1752393037
-1.34077 0.576676 -3.60448 204 182 121 1752393037
-1.34435 0.597491 -3.61411 204 182 121 1752393037
-1.34795 0.618417 -3.6238 204 182 121 1752393037
-1.35158 0.639455 -3.63353 204 182 121 1752393037
-1.35522 0.660607 -3.64331 204 182 121 1752393037
-1.35888 0.681873 -3.65315 204 182 121 1752393037
-1.36256 0.703254 -3.66304 204 182 121 1752393037
-1.36625 0.724751 -3.67299 204 182 121 1752393037
-1.36997 0.746366 -3.68299 204 182 121 1752393037
-1.03828 -1.12857 -2.82162 204 182 121 1752393037
-1.04045 -1.11585 -2.82752 204 182 121 1752393037
-1.04263 -1.10307 -2.83344 204 182 121 1752393037
-1.04482 -1.09025 -2.83939 204 182 121 1752393037
-1.04702 -1.07737 -2.84536 204 182 121 1752393037
-1.04922 -1.06443 -2.85135 204 182 121 1752393037
-1.05144 -1.05144 -2.85738 204 182 121 1752393037
-1.05367 -1.0384 -2.86343 204 182 121 1752393037
-1.0559 -1.02529 -2.8695 204 182 121 1752393037
-1.05814 -1.01214 -2.8756 204 182 121 1752393037
-1.0604 -0.998926 -2.88172 204 182 121 1752393037
-1.06266 -0.985658 -2.88788 204 182 121 1752393037
-1.06493 -0.972332 -2.89405 204 182 121 1752393037
-1.06722 -0.95895 -2.90026 204 182 121 1752393037
-1.06951 -0.94551 -2.90649 204 182 121 1752393037
-1.07181 -0.932012 -2.91274 204 182 121 1752393037
-1.07413 -0.918456 -2.91903 204 182 121 1752393037
-1.07645 -0.904841 -2.92534 204 182 121 1752393037
-1.07878 -0.891168 -2.93168 204 182 121 1752393037
-1.08113 -0.877435 -2.93805 204 182 121 1752393037
-1.08348 -0.863642 -2.94444 204 182 121 1752393037
-1.08584 -0.849789 -2.95087 204 182 121 1752393037
-1.08821 -0.835875 -2.95732 204 182 121 1752393037
-1.0906 -0.821901 -2.96379 204 182 121 1752393037
-1.09299 -0.807865 -2.9703 204 182 121 1752393037
-1.0954 -0.793767 -2.97684 204 182 121 1752393037
-1.09781 -0.779607 -2.9834 204 182 121 1752393037
-1.10024 -0.765385 -2.99 204 182 121 1752393037
-1.10268 -0.751099 -2.99662 204 182 121 1752393037
-1.10513 -0.73675 -3.00327 204 182 121 1752393037
-1.10758 -0.722338 -3.00995 204 182 121 1752393037
-1.11005 -0.707861 -3.01667 204 182 121 1752393037
-1.11253 -0.693319 -3.02341 204 182 121 1752393037
-1.11503 -0.678712 -3.03018 204 182 121 1752393037
-1.11753 -0.66404 -3.03698 204 182 121 1752393037
-1.12004 -0.649301 -3.04382 204 182 121 1752393037
-1.12257 -0.634496 -3.05068 204 182 121 1752393037
-1.12511 -0.619624 -3.05757 204 182 121 1752393037
-1.12766 -0.604685 -3.0645 204 182 121 1752393037
-1.13022 -0.589678 -3.07146 204 182 121 1752393037
-1.13279 -0.574603 -3.07845 204 182 121 1752393037
-1.13537 -0.559458 -3.08547 204 182 121 1752393037
-1.13797 -0.544245 -3.09252 204 182 121 1752393037
-1.14057 -0.528962 -3.09961 204 182 121 1752393037
-1.14319 -0.513609 -3.10672 204 182 121 1752393037
-1.14583 -0.498185 -3.11388 204 182 121 1752393037
-1.14847 -0.48269 -3.12106 204 182 121 1752393037
-1.15112 -0.467123 -3.12828 204 182 121 1752393037
-1.15379 -0.451484 -3.13553 204 182 121 1752393037
-1.15647 -0.435772 -3.14281 204 182 121 1752393037
-1.15917 -0.419987 -3.15013 204 182 121 1752393037
-1.16187 -0.404129 -3.15748 204 182 121 1752393037
-1.16459 -0.388196 -3.16487 204 182 121 1752393037
-1.16732 -0.372189 -3.17229 204 182 121 1752393037
-1.17006 -0.356106 -3.17975 255 255 255 1752393037
-1.17282 -0.339948 -3.18724 255 255 255 1752393037
-1.17559 -0.323713 -3.19476 255 255 255 1752393037
-1.17837 -0.307401 -3.20233 255 255 255 1752393037
-1.18117 -0.291012 -3.20992 255 255 255 1752393037
-1.18398 -0.274545 -3.21756 255 255 255 1752393037
-1.1868 -0.258 -3.22523 255 255 255 1752393037
-1.18964 -0.241375 -3.23294 255 255 255 1752393037
-1.19249 -0.224671 -3.24068 255 255 255 1752393037
-1.19535 -0.207887 -3.24846 255 255 255 1752393037
-1.19823 -0.191022 -3.25628 255 255 255 1752393037
-1.20112 -0.174075 -3.26414 255 255 255 1752393037
-1.20402 -0.157046 -3.27203 255 255 255 1752393037
-1.20694 -0.139935 -3.27997 255 255 255 1752393037
-1.20987 -0.122741 -3.28794 255 255 255 1752393037
-1.21282 -0.105463 -3.29595 255 255 255 1752393037
-1.21579 -0.0881 -3.304 255 255 255 1752393037
-1.21876 -0.070653 -3.31209 255 255 255 1752393037
-1.22175 -0.05312 -3.32022 255 255 255 1752393037
-1.22476 -0.0355 -3.32839 255 255 255 1752393037
-1.22778 -0.017794 -3.3366 255 255 255 1752393037
-1.23082 0 -3.34485 255 255 255 1752393037
-1.23387 0.017882 -3.35313 204 182 121 1752393037
-1.23693 0.035853 -3.36147 204 182 121 1752393037
-1.24001 0.053914 -3.36984 204 182 121 1752393037
-1.24311 0.072064 -3.37825 204 182 121 1752393037
-1.24622 0.090306 -3.38671 204 182 121 1752393037
-1.24935 0.108639 -3.39521 204 182 121 1752393037
-1.25249 0.127064 -3.40375 204 182 121 1752393037
-1.25565 0.145583 -3.41234 204 182 121 1752393037
-1.25883 0.164195 -3.42097 204 182 121 1752393037
-1.26202 0.182901 -3.42964 204 182 121 1752393037
-1.26523 0.201703 -3.43836 204 182 121 1752393037
-1.26845 0.2206 -3.44712 204 182 121 1752393037
-1.27169 0.239594 -3.45592 204 182 121 1752393037
-1.27495 0.258685 -3.46478 204 182 121 1752393037
-1.27822 0.277874 -3.47367 204 182 121 1752393037
-1.28151 0.297162 -3.48261 204 182 121 1752393037
-1.28482 0.316549 -3.4916 204 182 121 1752393037
-1.28814 0.336037 -3.50064 204 182 121 1752393037
-1.29148 0.355626 -3.50972 204 182 121 1752393037
-1.29484 0.375317 -3.51885 204 182 121 1752393037
-1.29822 0.395111 -3.52802 204 182 121 1752393037
-1.30161 0.415008 -3.53725 204 182 121 1752393037
-1.30503 0.435009 -3.54652 204 182 121 1752393037
-1.30846 0.455116 -3.55584 204 182 121 1752393037
-1.31191 0.475328 -3.56522 204 182 121 1752393037
-1.31537 0.495647 -3.57464 204 182 121 1752393037
-1.31886 0.516074 -3.58411 204 182 121 1752393037
-1.32236 0.53661 -3.59363 204 182 121 1752393037
-1.32588 0.557255 -3.6032 204 182 121 1752393037
-1.32942 0.57801 -3.61282 204 182 121 1752393037
-1.33298 0.598876 -3.62249 204 182 121 1752393037
-1.33656 0.619855 -3.63222 204 182 121 1752393037
-1.34016 0.640946 -3.642 204 182 121 1752393037
-1.34378 0.662151 -3.65183 204 182 121 1752393037
-1.34741 0.683471 -3.66172 204 182 121 1752393037
-1.35107 0.704907 -3.67165 204 182 121 1752393037
-1.35475 0.726459 -3.68164 204 182 121 1752393037
-1.35845 0.748129 -3.69169 204 182 121 1752393037
-1.02885 -1.13061 -2.82673 204 182 121 1752393037
-1.03101 -1.11787 -2.83264 204 182 121 1752393037
-1.03317 -1.10508 -2.83859 204 182 121 1752393037
-1.03534 -1.09223 -2.84455 204 182 121 1752393037
-1.03753 -1.07933 -2.85055 204 182 121 1752393037
-1.03972 -1.06638 -2.85657 204 182 121 1752393037
-1.04192 -1.05337 -2.86261 204 182 121 1752393037
-1.04413 -1.0403 -2.86868 204 182 121 1752393037
-1.04634 -1.02718 -2.87478 204 182 121 1752393037
-1.04857 -1.014 -2.8809 204 182 121 1752393037
-1.05081 -1.00077 -2.88705 204 182 121 1752393037
-1.05306 -0.987483 -2.89322 204 182 121 1752393037
-1.05532 -0.974137 -2.89942 204 182 121 1752393037
-1.05758 -0.960733 -2.90565 204 182 121 1752393037
-1.05986 -0.947272 -2.91191 204 182 121 1752393037
-1.06214 -0.933753 -2.91819 204 182 121 1752393037
-1.06444 -0.920175 -2.92449 204 182 121 1752393037
-1.06675 -0.906539 -2.93083 204 182 121 1752393037
-1.06906 -0.892843 -2.93719 204 182 121 1752393037
-1.07139 -0.879088 -2.94358 204 182 121 1752393037
-1.07372 -0.865273 -2.95 204 182 121 1752393037
-1.07607 -0.851397 -2.95645 204 182 121 1752393037
-1.07843 -0.837461 -2.96293 204 182 121 1752393037
-1.0808 -0.823463 -2.96943 204 182 121 1752393037
-1.08317 -0.809404 -2.97596 204 182 121 1752393037
-1.08556 -0.795283 -2.98252 204 182 121 1752393037
-1.08796 -0.781099 -2.98911 204 182 121 1752393037
-1.09037 -0.766852 -2.99573 204 182 121 1752393037
-1.09279 -0.752543 -3.00238 204 182 121 1752393037
-1.09522 -0.738169 -3.00906 204 182 121 1752393037
-1.09766 -0.723732 -3.01577 204 182 121 1752393037
-1.10011 -0.70923 -3.0225 204 182 121 1752393037
-1.10258 -0.694663 -3.02927 204 182 121 1752393037
-1.10505 -0.680031 -3.03607 204 182 121 1752393037
-1.10754 -0.665333 -3.0429 204 182 121 1752393037
-1.11003 -0.650569 -3.04976 204 182 121 1752393037
-1.11254 -0.635738 -3.05665 204 182 121 1752393037
-1.11506 -0.620839 -3.06357 204 182 121 1752393037
-1.11759 -0.605874 -3.07052 204 182 121 1752393037
-1.12013 -0.59084 -3.07751 204 182 121 1752393037
-1.12269 -0.575737 -3.08453 204 182 121 1752393037
-1.12525 -0.560566 -3.09157 204 182 121 1752393037
-1.12783 -0.545325 -3.09866 204 182 121 1752393037
-1.13042 -0.530014 -3.10577 204 182 121 1752393037
-1.13302 -0.514632 -3.11292 204 182 121 1752393037
-1.13563 -0.49918 -3.1201 204 182 121 1752393037
-1.13826 -0.483656 -3.12731 204 182 121 1752393037
-1.1409 -0.46806 -3.13455 204 182 121 1752393037
-1.14355 -0.452392 -3.14183 204 182 121 1752393037
-1.14621 -0.436651 -3.14915 204 182 121 1752393037
-1.14888 -0.420836 -3.1565 204 182 121 1752393037
-1.15157 -0.404947 -3.16388 204 182 121 1752393037
-1.15427 -0.388984 -3.17129 204 182 121 1752393037
-1.15698 -0.372946 -3.17875 204 182 121 1752393037
-1.15971 -0.356833 -3.18623 204 182 121 1752393037
-1.16244 -0.340643 -3.19375 204 182 121 1752393037
-1.16519 -0.324376 -3.20131 204 182 121 1752393037
-1.16796 -0.308033 -3.2089 204 182 121 1752393037
-1.17074 -0.291612 -3.21653 255 255 255 1752393037
-1.17352 -0.275112 -3.2242 255 255 255 1752393037
-1.17633 -0.258534 -3.2319 255 255 255 1752393037
-1.17914 -0.241876 -3.23964 255 255 255 1752393037
-1.18198 -0.225138 -3.24742 255 255 255 1752393037
-1.18482 -0.20832 -3.25523 255 255 255 1752393037
-1.18768 -0.191421 -3.26308 255 255 255 1752393037
-1.19055 -0.17444 -3.27097 255 255 255 1752393037
-1.19343 -0.157376 -3.2789 255 255 255 1752393037
-1.19633 -0.14023 -3.28687 255 255 255 1752393037
-1.19925 -0.123 -3.29487 255 255 255 1752393037
-1.20218 -0.105686 -3.30292 255 255 255 1752393037
-1.20512 -0.088287 -3.311 255 255 255 1752393037
-1.20808 -0.070803 -3.31913 255 255 255 1752393037
-1.21105 -0.053233 -3.32729 255 255 255 1752393037
-1.21403 -0.035576 -3.33549 255 255 255 1752393037
-1.21703 -0.017832 -3.34374 255 255 255 1752393037
-1.22005 0 -3.35202 255 255 255 1752393037
-1.22308 0.017921 -3.36035 204 182 121 1752393037
-1.22613 0.03593 -3.36872 204 182 121 1752393037
-1.22919 0.05403 -3.37712 204 182 121 1752393037
-1.23226 0.07222 -3.38558 204 182 121 1752393037
-1.23535 0.090502 -3.39407 204 182 121 1752393037
-1.23846 0.108876 -3.40261 204 182 121 1752393037
-1.24158 0.127342 -3.41119 204 182 121 1752393037
-1.24472 0.145901 -3.41981 204 182 121 1752393037
-1.24788 0.164555 -3.42848 204 182 121 1752393037
-1.25105 0.183304 -3.43719 204 182 121 1752393037
-1.25423 0.202148 -3.44594 204 182 121 1752393037
-1.25744 0.221088 -3.45474 204 182 121 1752393037
-1.26066 0.240125 -3.46359 204 182 121 1752393037
-1.26389 0.25926 -3.47248 204 182 121 1752393037
-1.26714 0.278493 -3.48141 204 182 121 1752393037
-1.27041 0.297826 -3.4904 204 182 121 1752393037
-1.2737 0.317258 -3.49942 204 182 121 1752393037
-1.277 0.336792 -3.5085 204 182 121 1752393037
-1.28032 0.356427 -3.51762 204 182 121 1752393037
-1.28366 0.376164 -3.52679 204 182 121 1752393037
-1.28702 0.396005 -3.53601 204 182 121 1752393037
-1.29039 0.41595 -3.54528 204 182 121 1752393037
-1.29378 0.435999 -3.55459 204 182 121 1752393037
-1.29719 0.456154 -3.56396 204 182 121 1752393037
-1.30061 0.476415 -3.57337 204 182 121 1752393037
-1.30406 0.496784 -3.58283 204 182 121 1752393037
-1.30752 0.517261 -3.59235 204 182 121 1752393037
-1.311 0.537847 -3.60191 204 182 121 1752393037
-1.3145 0.558543 -3.61153 204 182 121 1752393037
-1.31802 0.57935 -3.6212 204 182 121 1752393037
-1.32156 0.600268 -3.63091 204 182 121 1752393037
-1.32511 0.621299 -3.64069 204 182 121 1752393037
-1.32869 0.642444 -3.65051 204 182 121 1752393037
-1.33229 0.663703 -3.66039 204 182 121 1752393037
-1.3359 0.685077 -3.67032 204 182 121 1752393037
-1.33953 0.706568 -3.6803 204 182 121 1752393037
-1.34319 0.728176 -3.69034 204 182 121 1752393037
-1.34686 0.749902 -3.70044 204 182 121 1752393037
-1.01939 -1.13266 -2.83185 204 182 121 1752393037
-1.02153 -1.1199 -2.83779 204 182 121 1752393037
-1.02368 -1.10709 -2.84376 204 182 121 1752393037
-1.02584 -1.09422 -2.84975 204 182 121 1752393037
-1.028 -1.0813 -2.85576 204 182 121 1752393037
-1.03017 -1.06833 -2.8618 204 182 121 1752393037
-1.03236 -1.0553 -2.86787 204 182 121 1752393037
-1.03455 -1.04221 -2.87396 204 182 121 1752393037
-1.03675 -1.02908 -2.88008 204 182 121 1752393037
-1.03897 -1.01588 -2.88622 204 182 121 1752393037
-1.04119 -1.00262 -2.8924 204 182 121 1752393037
-1.04342 -0.989315 -2.89859 204 182 121 1752393037
-1.04566 -0.975948 -2.90481 204 182 121 1752393037
-1.04791 -0.962524 -2.91107 204 182 121 1752393037
-1.05017 -0.949041 -2.91734 204 182 121 1752393037
-1.05244 -0.935501 -2.92365 204 182 121 1752393037
-1.05472 -0.921902 -2.92998 204 182 121 1752393037
-1.05701 -0.908243 -2.93634 204 182 121 1752393037
-1.05931 -0.894525 -2.94273 204 182 121 1752393037
-1.06161 -0.880748 -2.94914 204 182 121 1752393037
-1.06394 -0.86691 -2.95559 204 182 121 1752393037
-1.06626 -0.853011 -2.96206 204 182 121 1752393037
-1.0686 -0.839052 -2.96856 204 182 121 1752393037
-1.07095 -0.825031 -2.97509 204 182 121 1752393037
-1.07331 -0.810949 -2.98164 204 182 121 1752393037
-1.07569 -0.796804 -2.98823 204 182 121 1752393037
-1.07807 -0.782596 -2.99484 204 182 121 1752393037
-1.08046 -0.768326 -3.00149 204 182 121 1752393037
-1.08286 -0.753992 -3.00816 204 182 121 1752393037
-1.08527 -0.739594 -3.01486 204 182 121 1752393037
-1.0877 -0.725132 -3.0216 204 182 121 1752393037
-1.09013 -0.710605 -3.02836 204 182 121 1752393037
-1.09258 -0.696013 -3.03516 204 182 121 1752393037
-1.09503 -0.681355 -3.04198 204 182 121 1752393037
-1.0975 -0.666631 -3.04884 204 182 121 1752393037
-1.09998 -0.651841 -3.05572 204 182 121 1752393037
-1.10247 -0.636984 -3.06264 204 182 121 1752393037
-1.10497 -0.622059 -3.06959 204 182 121 1752393037
-1.10749 -0.607067 -3.07657 204 182 121 1752393037
-1.11001 -0.592006 -3.08358 204 182 121 1752393037
-1.11255 -0.576876 -3.09063 204 182 121 1752393037
-1.11509 -0.561677 -3.0977 204 182 121 1752393037
-1.11765 -0.546408 -3.10482 204 182 121 1752393037
-1.12022 -0.531069 -3.11196 204 182 121 1752393037
-1.12281 -0.51566 -3.11913 204 182 121 1752393037
-1.1254 -0.500179 -3.12634 204 182 121 1752393037
-1.12801 -0.484626 -3.13358 204 182 121 1752393037
-1.13063 -0.469001 -3.14086 204 182 121 1752393037
-1.13326 -0.453304 -3.14817 204 182 121 1752393037
-1.1359 -0.437533 -3.15551 204 182 121 1752393037
-1.13856 -0.421688 -3.16289 204 182 121 1752393037
-1.14123 -0.405769 -3.1703 204 182 121 1752393037
-1.14391 -0.389776 -3.17775 204 182 121 1752393037
-1.1466 -0.373707 -3.18523 204 182 121 1752393037
-1.14931 -0.357562 -3.19274 204 182 121 1752393037
-1.15202 -0.341341 -3.2003 204 182 121 1752393037
-1.15476 -0.325043 -3.20789 204 182 121 1752393037
-1.1575 -0.308667 -3.21551 204 182 121 1752393037
-1.16026 -0.292213 -3.22317 204 182 121 1752393037
-1.16303 -0.275681 -3.23087 204 182 121 1752393037
-1.16581 -0.25907 -3.2386 204 182 121 1752393037
-1.16861 -0.242379 -3.24638 255 255 255 1752393037
-1.17142 -0.225607 -3.25418 255 255 255 1752393037
-1.17425 -0.208755 -3.26203 255 255 255 1752393037
-1.17709 -0.191821 -3.26991 255 255 255 1752393037
-1.17994 -0.174805 -3.27784 255 255 255 1752393037
-1.1828 -0.157707 -3.2858 255 255 255 1752393037
-1.18568 -0.140525 -3.2938 255 255 255 1752393037
-1.18858 -0.12326 -3.30184 255 255 255 1752393037
-1.19149 -0.10591 -3.30992 255 255 255 1752393037
-1.19441 -0.088475 -3.31803 255 255 255 1752393037
-1.19734 -0.070954 -3.32619 255 255 255 1752393037
-1.20029 -0.053346 -3.33439 255 255 255 1752393037
-1.20326 -0.035652 -3.34263 255 255 255 1752393037
-1.20624 -0.01787 -3.35091 255 255 255 1752393037
-1.20924 0 -3.35923 255 255 255 1752393037
-1.21225 0.017959 -3.36759 204 182 121 1752393037
-1.21527 0.036008 -3.37599 204 182 121 1752393037
-1.21831 0.054147 -3.38444 204 182 121 1752393037
-1.22137 0.072377 -3.39293 204 182 121 1752393037
-1.22444 0.090699 -3.40146 204 182 121 1752393037
-1.22752 0.109113 -3.41003 204 182 121 1752393037
-1.23063 0.127621 -3.41865 204 182 121 1752393037
-1.23374 0.146222 -3.42731 204 182 121 1752393037
-1.23688 0.164917 -3.43602 204 182 121 1752393037
-1.24003 0.183708 -3.44477 204 182 121 1752393037
-1.24319 0.202594 -3.45356 204 182 121 1752393037
-1.24637 0.221578 -3.4624 204 182 121 1752393037
-1.24957 0.240658 -3.47128 204 182 121 1752393037
-1.25279 0.259837 -3.48021 204 182 121 1752393037
-1.25602 0.279115 -3.48919 204 182 121 1752393037
-1.25927 0.298493 -3.49821 204 182 121 1752393037
-1.26253 0.317971 -3.50728 204 182 121 1752393037
-1.26581 0.33755 -3.5164 204 182 121 1752393037
-1.26911 0.357231 -3.52556 204 182 121 1752393037
-1.27243 0.377016 -3.53477 204 182 121 1752393037
-1.27576 0.396903 -3.54403 204 182 121 1752393037
-1.27911 0.416896 -3.55334 204 182 121 1752393037
-1.28248 0.436993 -3.5627 204 182 121 1752393037
-1.28587 0.457197 -3.57211 204 182 121 1752393037
-1.28927 0.477508 -3.58156 204 182 121 1752393037
-1.29269 0.497926 -3.59107 204 182 121 1752393037
-1.29613 0.518454 -3.60063 204 182 121 1752393037
-1.29959 0.53909 -3.61024 204 182 121 1752393037
-1.30307 0.559838 -3.6199 204 182 121 1752393037
-1.30657 0.580696 -3.62961 204 182 121 1752393037
-1.31008 0.601667 -3.63937 204 182 121 1752393037
-1.31361 0.622751 -3.64919 204 182 121 1752393037
-1.31717 0.643949 -3.65906 204 182 121 1752393037
-1.32074 0.665262 -3.66898 204 182 121 1752393037
-1.32433 0.686691 -3.67896 204 182 121 1752393037
-1.32794 0.708236 -3.68899 204 182 121 1752393037
-1.33157 0.7299 -3.69908 204 182 121 1752393037
-1.0099 -1.13472 -2.83699 204 182 121 1752393037
-1.01202 -1.12194 -2.84295 204 182 121 1752393037
-1.01415 -1.10911 -2.84894 204 182 121 1752393037
-1.01629 -1.09622 -2.85495 204 182 121 1752393037
-1.01844 -1.08328 -2.86099 204 182 121 1752393037
-1.0206 -1.07029 -2.86705 204 182 121 1752393037
-1.02277 -1.05724 -2.87314 204 182 121 1752393037
-1.02494 -1.04414 -2.87926 204 182 121 1752393037
-1.02713 -1.03098 -2.8854 204 182 121 1752393037
-1.02932 -1.01776 -2.89157 204 182 121 1752393037
-1.03153 -1.00449 -2.89776 204 182 121 1752393037
-1.03374 -0.991154 -2.90398 204 182 121 1752393037
-1.03597 -0.977767 -2.91023 204 182 121 1752393037
-1.0382 -0.964321 -2.9165 204 182 121 1752393037
-1.04044 -0.950817 -2.9228 204 182 121 1752393037
-1.0427 -0.937255 -2.92913 204 182 121 1752393037
-1.04496 -0.923634 -2.93549 204 182 121 1752393037
-1.04723 -0.909953 -2.94187 204 182 121 1752393037
-1.04951 -0.896214 -2.94828 204 182 121 1752393037
-1.05181 -0.882414 -2.95472 204 182 121 1752393037
-1.05411 -0.868553 -2.96119 204 182 121 1752393037
-1.05642 -0.854632 -2.96768 204 182 121 1752393037
-1.05874 -0.840649 -2.97421 204 182 121 1752393037
-1.06107 -0.826606 -2.98076 204 182 121 1752393037
-1.06342 -0.812499 -2.98734 204 182 121 1752393037
-1.06577 -0.798331 -2.99395 204 182 121 1752393037
-1.06814 -0.7841 -3.0006 204 182 121 1752393037
-1.07051 -0.769805 -3.00727 204 182 121 1752393037
-1.0729 -0.755447 -3.01396 204 182 121 1752393037
-1.07529 -0.741024 -3.02069 204 182 121 1752393037
-1.0777 -0.726537 -3.02746 204 182 121 1752393037
-1.08011 -0.711985 -3.03425 204 182 121 1752393037
-1.08254 -0.697368 -3.04107 204 182 121 1752393037
-1.08498 -0.682685 -3.04792 204 182 121 1752393037
-1.08743 -0.667935 -3.0548 204 182 121 1752393037
-1.08989 -0.653119 -3.06171 204 182 121 1752393037
-1.09236 -0.638235 -3.06866 204 182 121 1752393037
-1.09485 -0.623284 -3.07563 204 182 121 1752393037
-1.09734 -0.608265 -3.08264 204 182 121 1752393037
-1.09985 -0.593177 -3.08968 204 182 121 1752393037
-1.10237 -0.57802 -3.09676 204 182 121 1752393037
-1.1049 -0.562793 -3.10386 204 182 121 1752393037
-1.10744 -0.547497 -3.111 204 182 121 1752393037
-1.10999 -0.53213 -3.11817 204 182 121 1752393037
-1.11255 -0.516691 -3.12537 204 182 121 1752393037
-1.11513 -0.501182 -3.13261 204 182 121 1752393037
-1.11772 -0.4856 -3.13988 204 182 121 1752393037
-1.12032 -0.469946 -3.14718 204 182 121 1752393037
-1.12293 -0.454219 -3.15452 204 182 121 1752393037
-1.12556 -0.438418 -3.1619 204 182 121 1752393037
-1.12819 -0.422544 -3.1693 204 182 121 1752393037
-1.13084 -0.406594 -3.17674 204 182 121 1752393037
-1.1335 -0.39057 -3.18422 204 182 121 1752393037
-1.13618 -0.37447 -3.19174 204 182 121 1752393037
-1.13886 -0.358294 -3.19928 204 182 121 1752393037
-1.14156 -0.342041 -3.20687 204 182 121 1752393037
-1.14428 -0.325711 -3.21449 204 182 121 1752393037
-1.147 -0.309304 -3.22214 204 182 121 1752393037
-1.14974 -0.292818 -3.22984 204 182 121 1752393037
-1.15249 -0.276253 -3.23757 204 182 121 1752393037
-1.15526 -0.259608 -3.24533 204 182 121 1752393037
-1.15803 -0.242883 -3.25313 204 182 121 1752393037
-1.16083 -0.226078 -3.26098 204 182 121 1752393037
-1.16363 -0.209192 -3.26886 204 182 121 1752393037
-1.16645 -0.192224 -3.27677 204 182 121 1752393037
-1.16928 -0.175173 -3.28473 255 255 255 1752393037
-1.17213 -0.158039 -3.29273 255 255 255 1752393037
-1.17499 -0.140822 -3.30076 255 255 255 1752393037
-1.17786 -0.123521 -3.30883 255 255 255 1752393037
-1.18075 -0.106135 -3.31694 255 255 255 1752393037
-1.18365 -0.088663 -3.3251 255 255 255 1752393037
-1.18657 -0.071105 -3.33329 255 255 255 1752393037
-1.1895 -0.053461 -3.34152 255 255 255 1752393037
-1.19244 -0.035729 -3.3498 255 255 255 1752393037
-1.1954 -0.017909 -3.35811 255 255 255 1752393037
-1.19838 0 -3.36647 255 255 255 1752393037
-1.20137 0.017998 -3.37487 204 182 121 1752393037
-1.20437 0.036086 -3.38331 204 182 121 1752393037
-1.20739 0.054265 -3.39179 204 182 121 1752393037
-1.21043 0.072535 -3.40032 204 182 121 1752393037
-1.21348 0.090897 -3.40888 204 182 121 1752393037
-1.21654 0.109352 -3.41749 204 182 121 1752393037
-1.21962 0.1279 -3.42615 204 182 121 1752393037
-1.22272 0.146543 -3.43485 204 182 121 1752393037
-1.22583 0.165281 -3.44359 204 182 121 1752393037
-1.22896 0.184114 -3.45238 204 182 121 1752393037
-1.2321 0.203043 -3.46121 204 182 121 1752393037
-1.23526 0.22207 -3.47009 204 182 121 1752393037
-1.23844 0.241194 -3.47901 204 182 121 1752393037
-1.24163 0.260418 -3.48798 204 182 121 1752393037
-1.24484 0.27974 -3.497 204 182 121 1752393037
-1.24807 0.299163 -3.50606 204 182 121 1752393037
-1.25131 0.318686 -3.51517 204 182 121 1752393037
-1.25457 0.338312 -3.52433 204 182 121 1752393037
-1.25785 0.358039 -3.53354 204 182 121 1752393037
-1.26114 0.377871 -3.54279 204 182 121 1752393037
-1.26445 0.397806 -3.55209 204 182 121 1752393037
-1.26778 0.417846 -3.56144 204 182 121 1752393037
-1.27113 0.437992 -3.57084 204 182 121 1752393037
-1.27449 0.458245 -3.58029 204 182 121 1752393037
-1.27788 0.478605 -3.58979 204 182 121 1752393037
-1.28128 0.499074 -3.59934 204 182 121 1752393037
-1.28469 0.519651 -3.60895 204 182 121 1752393037
-1.28813 0.540339 -3.6186 204 182 121 1752393037
-1.29158 0.561138 -3.6283 204 182 121 1752393037
-1.29506 0.582048 -3.63806 204 182 121 1752393037
-1.29855 0.603072 -3.64787 204 182 121 1752393037
-1.30206 0.624209 -3.65774 204 182 121 1752393037
-1.30559 0.645461 -3.66765 204 182 121 1752393037
-1.30914 0.666828 -3.67762 204 182 121 1752393037
-1.31271 0.688312 -3.68765 204 182 121 1752393037
-1.3163 0.709913 -3.69773 204 182 121 1752393037
-1.3199 0.731632 -3.70786 204 182 121 1752393037
-1.00037 -1.13678 -2.84215 204 182 121 1752393037
-1.00247 -1.12399 -2.84814 204 182 121 1752393037
-1.00459 -1.11114 -2.85415 204 182 121 1752393037
-1.00671 -1.09823 -2.86018 204 182 121 1752393037
-1.00884 -1.08527 -2.86624 204 182 121 1752393037
-1.01099 -1.07226 -2.87232 204 182 121 1752393037
-1.01314 -1.05919 -2.87844 204 182 121 1752393037
-1.0153 -1.04606 -2.88457 204 182 121 1752393037
-1.01747 -1.03288 -2.89074 204 182 121 1752393037
-1.01965 -1.01965 -2.89693 204 182 121 1752393037
-1.02183 -1.00635 -2.90315 204 182 121 1752393037
-1.02403 -0.993 -2.90939 204 182 121 1752393037
-1.02624 -0.979591 -2.91566 204 182 121 1752393037
-1.02846 -0.966125 -2.92196 204 182 121 1752393037
-1.03068 -0.952599 -2.92828 204 182 121 1752393037
-1.03292 -0.939016 -2.93463 204 182 121 1752393037
-1.03516 -0.925373 -2.94101 204 182 121 1752393037
-1.03742 -0.91167 -2.94742 204 182 121 1752393037
-1.03968 -0.897908 -2.95386 204 182 121 1752393037
-1.04196 -0.884086 -2.96032 204 182 121 1752393037
-1.04424 -0.870203 -2.96681 204 182 121 1752393037
-1.04654 -0.856259 -2.97333 204 182 121 1752393037
-1.04884 -0.842253 -2.97988 204 182 121 1752393037
-1.05116 -0.828186 -2.98646 204 182 121 1752393037
-1.05349 -0.814056 -2.99307 204 182 121 1752393037
-1.05582 -0.799864 -2.9997 204 182 121 1752393037
-1.05817 -0.785609 -3.00637 204 182 121 1752393037
-1.06052 -0.77129 -3.01307 204 182 121 1752393037
-1.06289 -0.756907 -3.01979 204 182 121 1752393037
-1.06527 -0.74246 -3.02655 204 182 121 1752393037
-1.06766 -0.727948 -3.03333 204 182 121 1752393037
-1.07006 -0.713371 -3.04015 204 182 121 1752393037
-1.07247 -0.698728 -3.047 204 182 121 1752393037
-1.07489 -0.684019 -3.05387 204 182 121 1752393037
-1.07732 -0.669244 -3.06079 204 182 121 1752393037
-1.07976 -0.654401 -3.06772 204 182 121 1752393037
-1.08222 -0.639492 -3.0747 204 182 121 1752393037
-1.08468 -0.624514 -3.0817 204 182 121 1752393037
-1.08716 -0.609467 -3.08874 204 182 121 1752393037
-1.08965 -0.594352 -3.09581 204 182 121 1752393037
-1.09214 -0.579168 -3.10291 204 182 121 1752393037
-1.09466 -0.563914 -3.11004 204 182 121 1752393037
-1.09718 -0.548589 -3.11721 204 182 121 1752393037
-1.09971 -0.533194 -3.1244 204 182 121 1752393037
-1.10226 -0.517727 -3.13164 204 182 121 1752393037
-1.10482 -0.502189 -3.1389 204 182 121 1752393037
-1.10739 -0.486578 -3.1462 204 182 121 1752393037
-1.10997 -0.470895 -3.15354 204 182 121 1752393037
-1.11256 -0.455138 -3.16091 204 182 121 1752393037
-1.11516 -0.439307 -3.16831 204 182 121 1752393037
-1.11778 -0.423403 -3.17575 204 182 121 1752393037
-1.12041 -0.407423 -3.18322 204 182 121 1752393037
-1.12305 -0.391368 -3.19073 204 182 121 1752393037
-1.12571 -0.375237 -3.19827 204 182 121 1752393037
-1.12838 -0.359029 -3.20585 204 182 121 1752393037
-1.13106 -0.342745 -3.21346 204 182 121 1752393037
-1.13375 -0.326383 -3.22112 204 182 121 1752393037
-1.13646 -0.309943 -3.2288 204 182 121 1752393037
-1.13918 -0.293424 -3.23653 204 182 121 1752393037
-1.14191 -0.276826 -3.24429 204 182 121 1752393037
-1.14465 -0.260148 -3.25209 204 182 121 1752393037
-1.14741 -0.24339 -3.25992 204 182 121 1752393037
-1.15018 -0.226551 -3.2678 204 182 121 1752393037
-1.15297 -0.209631 -3.27571 204 182 121 1752393037
-1.15577 -0.192628 -3.28366 204 182 121 1752393037
-1.15858 -0.175542 -3.29165 204 182 121 1752393037
-1.1614 -0.158373 -3.29968 204 182 121 1752393037
-1.16424 -0.141121 -3.30775 204 182 121 1752393037
-1.1671 -0.123783 -3.31586 204 182 121 1752393037
-1.16997 -0.10636 -3.324 255 255 255 1752393037
-1.17285 -0.088852 -3.33219 255 255 255 1752393037
-1.17574 -0.071257 -3.34042 255 255 255 1752393037
-1.17865 -0.053575 -3.34869 255 255 255 1752393037
-1.18158 -0.035805 -3.357 255 255 255 1752393037
-1.18452 -0.017947 -3.36535 255 255 255 1752393037
-1.18747 0 -3.37374 204 182 121 1752393037
-1.19044 0.018037 -3.38217 204 182 121 1752393037
-1.19342 0.036164 -3.39065 204 182 121 1752393037
-1.19642 0.054383 -3.39917 204 182 121 1752393037
-1.19944 0.072693 -3.40773 204 182 121 1752393037
-1.20247 0.091096 -3.41634 204 182 121 1752393037
-1.20551 0.109592 -3.42499 204 182 121 1752393037
-1.20857 0.128182 -3.43368 204 182 121 1752393037
-1.21164 0.146866 -3.44242 204 182 121 1752393037
-1.21474 0.165646 -3.4512 204 182 121 1752393037
-1.21784 0.184522 -3.46003 204 182 121 1752393037
-1.22097 0.203494 -3.4689 204 182 121 1752393037
-1.2241 0.222564 -3.47782 204 182 121 1752393037
-1.22726 0.241733 -3.48678 204 182 121 1752393037
-1.23043 0.261 -3.49579 204 182 121 1752393037
-1.23362 0.280368 -3.50485 204 182 121 1752393037
-1.23682 0.299836 -3.51395 204 182 121 1752393037
-1.24004 0.319405 -3.5231 204 182 121 1752393037
-1.24328 0.339077 -3.5323 204 182 121 1752393037
-1.24654 0.358851 -3.54155 204 182 121 1752393037
-1.24981 0.378729 -3.55084 204 182 121 1752393037
-1.2531 0.398712 -3.56019 204 182 121 1752393037
-1.2564 0.418801 -3.56958 204 182 121 1752393037
-1.25973 0.438996 -3.57902 204 182 121 1752393037
-1.26307 0.459298 -3.58852 204 182 121 1752393037
-1.26643 0.479707 -3.59806 204 182 121 1752393037
-1.2698 0.500226 -3.60766 204 182 121 1752393037
-1.2732 0.520855 -3.6173 204 182 121 1752393037
-1.27661 0.541594 -3.627 204 182 121 1752393037
-1.28005 0.562444 -3.63675 204 182 121 1752393037
-1.2835 0.583407 -3.64655 204 182 121 1752393037
-1.28697 0.604483 -3.65641 204 182 121 1752393037
-1.29045 0.625674 -3.66632 204 182 121 1752393037
-1.29396 0.64698 -3.67628 204 182 121 1752393037
-1.29748 0.668401 -3.6863 204 182 121 1752393037
-1.30103 0.68994 -3.69637 204 182 121 1752393037
-1.30459 0.711597 -3.7065 204 182 121 1752393037
-1.30818 0.733373 -3.71668 204 182 121 1752393037
-0.986531 -1.13394 -2.83506 204 182 121 1752393037
-0.989581 -1.12228 -2.84383 204 182 121 1752393037
-0.992651 -1.11055 -2.85265 204 182 121 1752393037
-0.995739 -1.09875 -2.86152 204 182 121 1752393037
-0.998846 -1.08687 -2.87045 204 182 121 1752393037
-1.00134 -1.07423 -2.87762 204 182 121 1752393037
-1.00347 -1.06114 -2.88375 204 182 121 1752393037
-1.00562 -1.048 -2.88991 204 182 121 1752393037
-1.00777 -1.0348 -2.8961 204 182 121 1752393037
-1.00993 -1.02154 -2.90231 204 182 121 1752393037
-1.0121 -1.00823 -2.90855 204 182 121 1752393037
-1.01428 -0.994853 -2.91482 204 182 121 1752393037
-1.01647 -0.981423 -2.92111 204 182 121 1752393037
-1.01867 -0.967935 -2.92743 204 182 121 1752393037
-1.02088 -0.954389 -2.93378 204 182 121 1752393037
-1.0231 -0.940783 -2.94016 204 182 121 1752393037
-1.02533 -0.927118 -2.94656 204 182 121 1752393037
-1.02757 -0.913394 -2.95299 204 182 121 1752393037
-1.02982 -0.899609 -2.95945 204 182 121 1752393037
-1.03207 -0.885764 -2.96594 204 182 121 1752393037
-1.03434 -0.871859 -2.97246 204 182 121 1752393037
-1.03662 -0.857891 -2.979 204 182 121 1752393037
-1.03891 -0.843863 -2.98558 204 182 121 1752393037
-1.0412 -0.829772 -2.99218 204 182 121 1752393037
-1.04351 -0.815619 -2.99881 204 182 121 1752393037
-1.04583 -0.801403 -3.00548 204 182 121 1752393037
-1.04816 -0.787123 -3.01217 204 182 121 1752393037
-1.0505 -0.77278 -3.01889 204 182 121 1752393037
-1.05285 -0.758373 -3.02564 204 182 121 1752393037
-1.05521 -0.743901 -3.03242 204 182 121 1752393037
-1.05758 -0.729364 -3.03924 204 182 121 1752393037
