ply
format ascii 1.0
comment PCL generated
obj_info is_cyberware_data 0
obj_info is_mesh 0
obj_info is_warped 0
obj_info is_interlaced 0
obj_info num_cols 18516
obj_info num_rows 1
obj_info echo_rgb_offset_x 0
obj_info echo_rgb_offset_y 0
obj_info echo_rgb_offset_z 0
obj_info echo_rgb_frontfocus 0.0
obj_info echo_rgb_backfocus 0.0
obj_info echo_rgb_pixelsize 0.0
obj_info echo_rgb_centerpixel 0
obj_info echo_frames 1
obj_info echo_lgincr 0.0
element vertex 949
property float x
property float y
property float z
property uchar red
property uchar green
property uchar blue
property uint label
end_header
0.936081 0.049924 -4.68074 204 182 121 1752393037
0.938153 0.075052 -4.6911 204 182 121 1752393037
0.940235 0.100292 -4.70151 204 182 121 1752393037
0.942325 0.125643 -4.71196 204 182 121 1752393037
0.944426 0.151108 -4.72247 204 182 121 1752393037
0.812021 -1.5922 -3.98078 204 182 121 1752393037
0.813549 -1.57393 -3.98827 204 182 121 1752393037
0.815083 -1.55558 -3.99579 204 182 121 1752393037
0.816623 -1.53717 -4.00334 204 182 121 1752393037
0.818169 -1.51869 -4.01092 204 182 121 1752393037
0.819721 -1.50014 -4.01853 204 182 121 1752393037
0.821278 -1.48152 -4.02616 204 182 121 1752393037
0.822842 -1.46283 -4.03382 204 182 121 1752393037
0.824411 -1.44407 -4.04152 204 182 121 1752393037
0.825987 -1.42523 -4.04924 204 182 121 1752393037
0.827568 -1.40632 -4.057 204 182 121 1752393037
0.829156 -1.38734 -4.06478 204 182 121 1752393037
0.830749 -1.36829 -4.07259 204 182 121 1752393037
0.832349 -1.34917 -4.08043 204 182 121 1752393037
0.833955 -1.32997 -4.08831 204 182 121 1752393037
0.835567 -1.31069 -4.09621 204 182 121 1752393037
0.837186 -1.29135 -4.10414 204 182 121 1752393037
0.83881 -1.27192 -4.11211 204 182 121 1752393037
0.840441 -1.25242 -4.1201 204 182 121 1752393037
0.842079 -1.23285 -4.12813 204 182 121 1752393037
0.843723 -1.2132 -4.13619 204 182 121 1752393037
0.845373 -1.19347 -4.14428 204 182 121 1752393037
0.847029 -1.17366 -4.1524 204 182 121 1752393037
0.848693 -1.15378 -4.16055 204 182 121 1752393037
0.850362 -1.13382 -4.16874 204 182 121 1752393037
0.852039 -1.11378 -4.17696 204 182 121 1752393037
0.853722 -1.09366 -4.18521 204 182 121 1752393037
0.855411 -1.07346 -4.19349 204 182 121 1752393037
0.857107 -1.05318 -4.20181 204 182 121 1752393037
0.85881 -1.03282 -4.21016 204 182 121 1752393037
0.86052 -1.01238 -4.21854 204 182 121 1752393037
0.862237 -0.991854 -4.22695 204 182 121 1752393037
0.86396 -0.97125 -4.2354 204 182 121 1752393037
0.865691 -0.950562 -4.24389 204 182 121 1752393037
0.867428 -0.929792 -4.2524 204 182 121 1752393037
0.869172 -0.908938 -4.26095 204 182 121 1752393037
0.870924 -0.888001 -4.26954 204 182 121 1752393037
0.872682 -0.866978 -4.27816 204 182 121 1752393037
0.874448 -0.845871 -4.28681 204 182 121 1752393037
0.87622 -0.824678 -4.29551 204 182 121 1752393037
0.878 -0.803399 -4.30423 204 182 121 1752393037
0.879788 -0.782033 -4.31299 204 182 121 1752393037
0.881582 -0.760581 -4.32179 204 182 121 1752393037
0.883384 -0.73904 -4.33062 204 182 121 1752393037
0.885193 -0.717411 -4.33949 204 182 121 1752393037
0.88701 -0.695694 -4.3484 204 182 121 1752393037
0.888834 -0.673887 -4.35734 204 182 121 1752393037
0.890665 -0.65199 -4.36632 204 182 121 1752393037
0.892504 -0.630003 -4.37533 204 182 121 1752393037
0.894351 -0.607925 -4.38439 204 182 121 1752393037
0.896205 -0.585755 -4.39348 204 182 121 1752393037
0.898068 -0.563493 -4.40261 204 182 121 1752393037
0.899937 -0.541139 -4.41177 204 182 121 1752393037
0.901815 -0.518691 -4.42098 204 182 121 1752393037
0.903701 -0.496149 -4.43022 204 182 121 1752393037
0.905594 -0.473513 -4.4395 204 182 121 1752393037
0.907495 -0.450782 -4.44882 204 182 121 1752393037
0.909405 -0.427955 -4.45819 204 182 121 1752393037
0.911322 -0.405032 -4.46758 204 182 121 1752393037
0.913248 -0.382012 -4.47702 204 182 121 1752393037
0.915181 -0.358895 -4.4865 204 182 121 1752393037
0.917123 -0.335679 -4.49602 204 182 121 1752393037
0.919073 -0.312365 -4.50558 204 182 121 1752393037
0.921032 -0.288951 -4.51518 204 182 121 1752393037
0.922999 -0.265438 -4.52483 204 182 121 1752393037
0.924974 -0.241823 -4.53451 204 182 121 1752393037
0.926958 -0.218108 -4.54423 204 182 121 1752393037
0.92895 -0.19429 -4.554 204 182 121 1752393037
0.930951 -0.17037 -4.56381 204 182 121 1752393037
0.93296 -0.146347 -4.57366 204 182 121 1752393037
0.934978 -0.122219 -4.58355 204 182 121 1752393037
0.937005 -0.097987 -4.59349 204 182 121 1752393037
0.939041 -0.07365 -4.60347 204 182 121 1752393037
0.941086 -0.049207 -4.61349 204 182 121 1752393037
0.943139 -0.024657 -4.62356 204 182 121 1752393037
0.945202 0 -4.63367 204 182 121 1752393037
0.947273 0.024765 -4.64383 204 182 121 1752393037
0.949354 0.049639 -4.65403 204 182 121 1752393037
0.951443 0.074623 -4.66427 204 182 121 1752393037
0.953542 0.099717 -4.67456 204 182 121 1752393037
0.955651 0.124922 -4.6849 204 182 121 1752393037
0.957768 0.150238 -4.69528 204 182 121 1752393037
0.823921 -1.58446 -3.96144 204 182 121 1752393037
0.825464 -1.56627 -3.96886 204 182 121 1752393037
0.827013 -1.548 -3.97631 204 182 121 1752393037
0.828568 -1.52966 -3.98378 204 182 121 1752393037
0.830129 -1.51126 -3.99129 204 182 121 1752393037
0.831696 -1.49279 -3.99882 204 182 121 1752393037
0.833268 -1.47424 -4.00638 204 182 121 1752393037
0.834847 -1.45563 -4.01397 204 182 121 1752393037
0.836431 -1.43695 -4.02159 204 182 121 1752393037
0.838022 -1.41819 -4.02924 204 182 121 1752393037
0.839618 -1.39936 -4.03691 204 182 121 1752393037
0.841221 -1.38047 -4.04462 204 182 121 1752393037
0.84283 -1.36149 -4.05235 204 182 121 1752393037
0.844445 -1.34245 -4.06012 204 182 121 1752393037
0.846066 -1.32333 -4.06791 204 182 121 1752393037
0.847693 -1.30414 -4.07574 204 182 121 1752393037
0.849327 -1.28488 -4.08359 204 182 121 1752393037
0.850967 -1.26554 -4.09148 204 182 121 1752393037
0.852613 -1.24613 -4.09939 204 182 121 1752393037
0.854266 -1.22664 -4.10734 204 182 121 1752393037
0.855925 -1.20707 -4.11532 204 182 121 1752393037
0.857591 -1.18743 -4.12333 204 182 121 1752393037
0.859263 -1.16772 -4.13137 204 182 121 1752393037
0.860942 -1.14792 -4.13944 204 182 121 1752393037
0.862627 -1.12805 -4.14754 204 182 121 1752393037
0.864319 -1.1081 -4.15567 204 182 121 1752393037
0.866017 -1.08807 -4.16384 204 182 121 1752393037
0.867722 -1.06797 -4.17204 204 182 121 1752393037
0.869434 -1.04778 -4.18027 204 182 121 1752393037
0.871153 -1.02751 -4.18853 204 182 121 1752393037
0.872878 -1.00717 -4.19683 204 182 121 1752393037
0.874611 -0.98674 -4.20516 204 182 121 1752393037
0.87635 -0.966232 -4.21352 204 182 121 1752393037
0.878096 -0.945642 -4.22192 204 182 121 1752393037
0.879849 -0.924969 -4.23034 204 182 121 1752393037
0.881609 -0.904214 -4.23881 204 182 121 1752393037
0.883376 -0.883376 -4.2473 204 182 121 1752393037
0.88515 -0.862454 -4.25584 204 182 121 1752393037
0.886932 -0.841448 -4.2644 204 182 121 1752393037
0.88872 -0.820357 -4.273 204 182 121 1752393037
0.890516 -0.799181 -4.28163 204 182 121 1752393037
0.892319 -0.777919 -4.2903 204 182 121 1752393037
0.89413 -0.756571 -4.29901 204 182 121 1752393037
0.895948 -0.735136 -4.30775 204 182 121 1752393037
0.897773 -0.713614 -4.31652 204 182 121 1752393037
0.899605 -0.692004 -4.32533 204 182 121 1752393037
0.901446 -0.670306 -4.33418 204 182 121 1752393037
0.903293 -0.648518 -4.34307 204 182 121 1752393037
0.905148 -0.626641 -4.35198 204 182 121 1752393037
0.907011 -0.604674 -4.36094 204 182 121 1752393037
0.908882 -0.582617 -4.36994 204 182 121 1752393037
0.91076 -0.560468 -4.37897 204 182 121 1752393037
0.912646 -0.538227 -4.38804 204 182 121 1752393037
0.91454 -0.515894 -4.39714 204 182 121 1752393037
0.916442 -0.493469 -4.40628 204 182 121 1752393037
0.918352 -0.47095 -4.41547 204 182 121 1752393037
0.920269 -0.448336 -4.42469 204 182 121 1752393037
0.922195 -0.425628 -4.43395 204 182 121 1752393037
0.924129 -0.402825 -4.44324 204 182 121 1752393037
0.926071 -0.379926 -4.45258 204 182 121 1752393037
0.928021 -0.356931 -4.46196 204 182 121 1752393037
0.929979 -0.333839 -4.47137 204 182 121 1752393037
0.931946 -0.310649 -4.48083 204 182 121 1752393037
0.933921 -0.28736 -4.49032 204 182 121 1752393037
0.935904 -0.263973 -4.49986 204 182 121 1752393037
0.937896 -0.240486 -4.50944 204 182 121 1752393037
0.939896 -0.216899 -4.51905 204 182 121 1752393037
0.941905 -0.193211 -4.52871 204 182 121 1752393037
0.943923 -0.169422 -4.53841 204 182 121 1752393037
0.945949 -0.145531 -4.54815 204 182 121 1752393037
0.947984 -0.121536 -4.55794 204 182 121 1752393037
0.950027 -0.097439 -4.56776 204 182 121 1752393037
0.952079 -0.073237 -4.57763 204 182 121 1752393037
0.954141 -0.04893 -4.58754 204 182 121 1752393037
0.956211 -0.024518 -4.5975 204 182 121 1752393037
0.95829 0 -4.60749 204 182 121 1752393037
0.960379 0.024625 -4.61753 204 182 121 1752393037
0.962476 0.049358 -4.62762 204 182 121 1752393037
0.964583 0.074199 -4.63775 204 182 121 1752393037
0.966698 0.099149 -4.64792 204 182 121 1752393037
0.968823 0.124208 -4.65814 204 182 121 1752393037
0.970958 0.149378 -4.6684 204 182 121 1752393037
0.973102 0.174659 -4.67871 204 182 121 1752393037
0.835706 -1.5768 -3.94229 204 182 121 1752393037
0.837264 -1.55868 -3.94964 204 182 121 1752393037
0.838828 -1.54049 -3.95702 204 182 121 1752393037
0.840397 -1.52223 -3.96442 204 182 121 1752393037
0.841972 -1.5039 -3.97185 204 182 121 1752393037
0.843554 -1.4855 -3.97931 204 182 121 1752393037
0.845141 -1.46704 -3.9868 204 182 121 1752393037
0.846734 -1.4485 -3.99431 204 182 121 1752393037
0.848333 -1.4299 -4.00186 204 182 121 1752393037
0.849938 -1.41122 -4.00943 204 182 121 1752393037
0.85155 -1.39247 -4.01703 204 182 121 1752393037
0.853167 -1.37365 -4.02466 204 182 121 1752393037
0.854791 -1.35476 -4.03232 204 182 121 1752393037
0.85642 -1.3358 -4.04001 204 182 121 1752393037
0.858057 -1.31677 -4.04773 204 182 121 1752393037
0.859699 -1.29766 -4.05547 204 182 121 1752393037
0.861347 -1.27848 -4.06325 204 182 121 1752393037
0.863002 -1.25922 -4.07106 204 182 121 1752393037
0.864664 -1.23989 -4.07889 204 182 121 1752393037
0.866331 -1.22049 -4.08676 204 182 121 1752393037
0.868005 -1.20101 -4.09466 204 182 121 1752393037
0.869686 -1.18146 -4.10258 204 182 121 1752393037
0.871373 -1.16183 -4.11054 204 182 121 1752393037
0.873067 -1.14213 -4.11853 204 182 121 1752393037
0.874767 -1.12234 -4.12655 204 182 121 1752393037
0.876474 -1.10248 -4.13461 204 182 121 1752393037
0.878188 -1.08255 -4.14269 204 182 121 1752393037
0.879908 -1.06253 -4.1508 204 182 121 1752393037
0.881635 -1.04244 -4.15895 204 182 121 1752393037
0.883369 -1.02226 -4.16713 204 182 121 1752393037
0.88511 -1.00201 -4.17534 204 182 121 1752393037
0.886857 -0.981678 -4.18359 204 182 121 1752393037
0.888612 -0.961265 -4.19186 204 182 121 1752393037
0.890373 -0.940772 -4.20017 204 182 121 1752393037
0.892141 -0.920196 -4.20852 204 182 121 1752393037
0.893917 -0.899539 -4.21689 204 182 121 1752393037
0.8957 -0.8788 -4.2253 204 182 121 1752393037
0.897489 -0.857977 -4.23374 204 182 121 1752393037
0.899286 -0.837071 -4.24222 204 182 121 1752393037
0.90109 -0.816082 -4.25073 204 182 121 1752393037
0.902901 -0.795008 -4.25927 204 182 121 1752393037
0.90472 -0.773849 -4.26785 204 182 121 1752393037
0.906546 -0.752604 -4.27646 204 182 121 1752393037
0.908379 -0.731274 -4.28511 204 182 121 1752393037
0.91022 -0.709857 -4.2938 204 182 121 1752393037
0.912068 -0.688353 -4.30252 204 182 121 1752393037
0.913924 -0.666762 -4.31127 204 182 121 1752393037
0.915787 -0.645083 -4.32006 204 182 121 1752393037
0.917658 -0.623315 -4.32889 204 182 121 1752393037
0.919537 -0.601458 -4.33775 204 182 121 1752393037
0.921423 -0.579511 -4.34665 204 182 121 1752393037
0.923317 -0.557475 -4.35558 204 182 121 1752393037
0.925219 -0.535347 -4.36455 204 182 121 1752393037
0.927129 -0.513128 -4.37356 204 182 121 1752393037
0.929047 -0.490817 -4.38261 204 182 121 1752393037
0.930972 -0.468414 -4.39169 204 182 121 1752393037
0.932906 -0.445917 -4.40081 204 182 121 1752393037
0.934847 -0.423327 -4.40997 204 182 121 1752393037
0.936797 -0.400643 -4.41917 204 182 121 1752393037
0.938755 -0.377864 -4.4284 204 182 121 1752393037
0.940721 -0.354989 -4.43768 204 182 121 1752393037
0.942695 -0.332018 -4.44699 204 182 121 1752393037
0.944678 -0.308951 -4.45635 204 182 121 1752393037
0.946669 -0.285787 -4.46574 204 182 121 1752393037
0.948668 -0.262524 -4.47517 204 182 121 1752393037
0.950676 -0.239164 -4.48464 204 182 121 1752393037
0.952692 -0.215704 -4.49415 204 182 121 1752393037
0.954717 -0.192144 -4.50371 204 182 121 1752393037
0.956751 -0.168484 -4.5133 204 182 121 1752393037
0.958793 -0.144723 -4.52293 204 182 121 1752393037
0.960844 -0.120861 -4.53261 204 182 121 1752393037
0.962904 -0.096896 -4.54232 204 182 121 1752393037
0.964972 -0.072828 -4.55208 204 182 121 1752393037
0.96705 -0.048657 -4.56188 204 182 121 1752393037
0.969137 -0.024381 -4.57172 204 182 121 1752393037
0.971232 0 -4.58161 204 182 121 1752393037
0.973337 0.024486 -4.59154 204 182 121 1752393037
0.97545 0.049079 -4.60151 204 182 121 1752393037
0.977573 0.073779 -4.61152 204 182 121 1752393037
0.979706 0.098587 -4.62158 204 182 121 1752393037
0.981847 0.123503 -4.63168 204 182 121 1752393037
0.983998 0.148528 -4.64183 204 182 121 1752393037
0.986158 0.173663 -4.65202 204 182 121 1752393037
0.847378 -1.56922 -3.92333 204 182 121 1752393037
0.84895 -1.55117 -3.9306 204 182 121 1752393037
0.850528 -1.53305 -3.93791 204 182 121 1752393037
0.852112 -1.51487 -3.94524 204 182 121 1752393037
0.853701 -1.49661 -3.9526 204 182 121 1752393037
0.855297 -1.47829 -3.95999 204 182 121 1752393037
0.856898 -1.4599 -3.9674 204 182 121 1752393037
0.858505 -1.44144 -3.97485 204 182 121 1752393037
0.860119 -1.42291 -3.98232 204 182 121 1752393037
0.861738 -1.40431 -3.98981 204 182 121 1752393037
0.863364 -1.38565 -3.99734 204 182 121 1752393037
0.864996 -1.36691 -4.0049 204 182 121 1752393037
0.866634 -1.3481 -4.01248 204 182 121 1752393037
0.868278 -1.32922 -4.02009 204 182 121 1752393037
0.869929 -1.31026 -4.02774 204 182 121 1752393037
0.871585 -1.29124 -4.03541 204 182 121 1752393037
0.873249 -1.27214 -4.04311 204 182 121 1752393037
0.874918 -1.25297 -4.05084 204 182 121 1752393037
0.876594 -1.23372 -4.0586 204 182 121 1752393037
0.878276 -1.21441 -4.06638 204 182 121 1752393037
0.879965 -1.19501 -4.0742 204 182 121 1752393037
0.88166 -1.17555 -4.08205 204 182 121 1752393037
0.883362 -1.156 -4.08993 204 182 121 1752393037
0.88507 -1.13639 -4.09784 204 182 121 1752393037
0.886785 -1.11669 -4.10578 204 182 121 1752393037
0.888507 -1.09692 -4.11375 204 182 121 1752393037
0.890235 -1.07708 -4.12175 204 182 121 1752393037
0.89197 -1.05715 -4.12979 204 182 121 1752393037
0.893712 -1.03715 -4.13785 204 182 121 1752393037
0.895461 -1.01707 -4.14595 204 182 121 1752393037
0.897216 -0.996907 -4.15408 204 182 121 1752393037
0.898979 -0.976668 -4.16224 204 182 121 1752393037
0.900748 -0.95635 -4.17043 204 182 121 1752393037
0.902525 -0.935951 -4.17865 204 182 121 1752393037
0.904308 -0.915472 -4.18691 204 182 121 1752393037
0.906098 -0.894912 -4.1952 204 182 121 1752393037
0.907896 -0.87427 -4.20352 204 182 121 1752393037
0.909701 -0.853546 -4.21188 204 182 121 1752393037
0.911512 -0.83274 -4.22027 204 182 121 1752393037
0.913332 -0.81185 -4.22869 204 182 121 1752393037
0.915158 -0.790877 -4.23714 204 182 121 1752393037
0.916992 -0.76982 -4.24564 204 182 121 1752393037
0.918833 -0.748679 -4.25416 204 182 121 1752393037
0.920681 -0.727452 -4.26272 204 182 121 1752393037
0.922537 -0.70614 -4.27131 204 182 121 1752393037
0.9244 -0.684741 -4.27994 204 182 121 1752393037
0.926271 -0.663256 -4.2886 204 182 121 1752393037
0.92815 -0.641684 -4.2973 204 182 121 1752393037
0.930036 -0.620024 -4.30603 204 182 121 1752393037
0.93193 -0.598276 -4.3148 204 182 121 1752393037
0.933832 -0.576439 -4.3236 204 182 121 1752393037
0.935741 -0.554513 -4.33244 204 182 121 1752393037
0.937658 -0.532497 -4.34132 204 182 121 1752393037
0.939583 -0.510391 -4.35023 204 182 121 1752393037
0.941516 -0.488194 -4.35918 204 182 121 1752393037
0.943457 -0.465905 -4.36817 204 182 121 1752393037
0.945406 -0.443524 -4.37719 204 182 121 1752393037
0.947363 -0.42105 -4.38625 204 182 121 1752393037
0.949328 -0.398484 -4.39535 204 182 121 1752393037
0.951302 -0.375823 -4.40449 204 182 121 1752393037
0.953283 -0.353068 -4.41366 204 182 121 1752393037
0.955273 -0.330218 -4.42288 204 182 121 1752393037
0.957271 -0.307272 -4.43213 204 182 121 1752393037
0.959278 -0.28423 -4.44142 204 182 121 1752393037
0.961293 -0.261092 -4.45075 204 182 121 1752393037
0.963316 -0.237856 -4.46011 204 182 121 1752393037
0.965348 -0.214522 -4.46952 204 182 121 1752393037
0.967389 -0.191089 -4.47897 204 182 121 1752393037
0.969438 -0.167557 -4.48846 204 182 121 1752393037
0.971496 -0.143925 -4.49799 204 182 121 1752393037
0.973562 -0.120193 -4.50756 204 182 121 1752393037
0.975638 -0.096359 -4.51717 204 182 121 1752393037
0.977722 -0.072424 -4.52681 204 182 121 1752393037
0.979815 -0.048386 -4.53651 204 182 121 1752393037
0.981918 -0.024245 -4.54624 204 182 121 1752393037
0.984029 0 -4.55602 204 182 121 1752393037
0.98615 0.024349 -4.56583 204 182 121 1752393037
0.988279 0.048804 -4.57569 204 182 121 1752393037
0.990418 0.073364 -4.5856 204 182 121 1752393037
0.992566 0.098031 -4.59554 204 182 121 1752393037
0.994723 0.122805 -4.60553 204 182 121 1752393037
0.99689 0.147687 -4.61556 204 182 121 1752393037
0.999066 0.172678 -4.62564 204 182 121 1752393037
1.00125 0.197778 -4.63576 204 182 121 1752393037
0.858939 -1.56171 -3.90455 204 182 121 1752393037
0.860524 -1.54373 -3.91175 204 182 121 1752393037
0.862116 -1.52568 -3.91899 204 182 121 1752393037
0.863713 -1.50757 -3.92625 204 182 121 1752393037
0.865317 -1.48939 -3.93354 204 182 121 1752393037
0.866926 -1.47115 -3.94085 204 182 121 1752393037
0.868541 -1.45283 -3.9482 204 182 121 1752393037
0.870163 -1.43445 -3.95557 204 182 121 1752393037
0.87179 -1.416 -3.96297 204 182 121 1752393037
0.873424 -1.39748 -3.97039 204 182 121 1752393037
0.875063 -1.37889 -3.97784 204 182 121 1752393037
0.876709 -1.36023 -3.98533 204 182 121 1752393037
0.878361 -1.3415 -3.99284 204 182 121 1752393037
0.88002 -1.3227 -4.00037 204 182 121 1752393037
0.881684 -1.30382 -4.00794 204 182 121 1752393037
0.883355 -1.28488 -4.01554 204 182 121 1752393037
0.885032 -1.26586 -4.02316 204 182 121 1752393037
0.886716 -1.24678 -4.03082 204 182 121 1752393037
0.888406 -1.22761 -4.0385 204 182 121 1752393037
0.890103 -1.20838 -4.04621 204 182 121 1752393037
0.891806 -1.18907 -4.05395 204 182 121 1752393037
0.893515 -1.16969 -4.06172 204 182 121 1752393037
0.895231 -1.15024 -4.06952 204 182 121 1752393037
0.896954 -1.1307 -4.07735 204 182 121 1752393037
0.898683 -1.1111 -4.08521 204 182 121 1752393037
0.900419 -1.09142 -4.0931 204 182 121 1752393037
0.902162 -1.07166 -4.10103 204 182 121 1752393037
0.903911 -1.05182 -4.10898 204 182 121 1752393037
0.905668 -1.03191 -4.11696 204 182 121 1752393037
0.907431 -1.01192 -4.12498 204 182 121 1752393037
0.909201 -0.991855 -4.13303 204 182 121 1752393037
0.910977 -0.971709 -4.1411 204 182 121 1752393037
0.912761 -0.951484 -4.14921 204 182 121 1752393037
0.914552 -0.93118 -4.15735 204 182 121 1752393037
0.91635 -0.910796 -4.16552 204 182 121 1752393037
0.918155 -0.890332 -4.17373 204 182 121 1752393037
0.919967 -0.869787 -4.18197 204 182 121 1752393037
0.921786 -0.849161 -4.19024 204 182 121 1752393037
0.923613 -0.828453 -4.19854 204 182 121 1752393037
0.925447 -0.807663 -4.20688 204 182 121 1752393037
0.927288 -0.78679 -4.21524 204 182 121 1752393037
0.929136 -0.765833 -4.22365 204 182 121 1752393037
0.930992 -0.744793 -4.23208 204 182 121 1752393037
0.932855 -0.723669 -4.24055 204 182 121 1752393037
0.934726 -0.702461 -4.24906 204 182 121 1752393037
0.936604 -0.681166 -4.25759 204 182 121 1752393037
0.93849 -0.659787 -4.26617 204 182 121 1752393037
0.940383 -0.638321 -4.27477 204 182 121 1752393037
0.942284 -0.616768 -4.28341 204 182 121 1752393037
0.944193 -0.595127 -4.29209 204 182 121 1752393037
0.946109 -0.573399 -4.3008 204 182 121 1752393037
0.948033 -0.551583 -4.30955 204 182 121 1752393037
0.949965 -0.529678 -4.31833 204 182 121 1752393037
0.951905 -0.507683 -4.32715 204 182 121 1752393037
0.953853 -0.485598 -4.33601 204 182 121 1752393037
0.955809 -0.463423 -4.3449 204 182 121 1752393037
0.957773 -0.441156 -4.35383 204 182 121 1752393037
0.959745 -0.418798 -4.36279 204 182 121 1752393037
0.961726 -0.396347 -4.37179 204 182 121 1752393037
0.963714 -0.373804 -4.38083 204 182 121 1752393037
0.96571 -0.351167 -4.38991 204 182 121 1752393037
0.967715 -0.328437 -4.39902 204 182 121 1752393037
0.969729 -0.305611 -4.40817 204 182 121 1752393037
0.97175 -0.282691 -4.41736 204 182 121 1752393037
0.97378 -0.259675 -4.42659 204 182 121 1752393037
0.975819 -0.236562 -4.43586 204 182 121 1752393037
0.977866 -0.213353 -4.44516 204 182 121 1752393037
0.979922 -0.190045 -4.45451 204 182 121 1752393037
0.981986 -0.16664 -4.46389 204 182 121 1752393037
0.984059 -0.143136 -4.47331 204 182 121 1752393037
0.986141 -0.119532 -4.48278 204 182 121 1752393037
0.988232 -0.095829 -4.49228 204 182 121 1752393037
0.990331 -0.072024 -4.50183 204 182 121 1752393037
0.99244 -0.048118 -4.51141 204 182 121 1752393037
0.994558 -0.02411 -4.52104 204 182 121 1752393037
0.996684 0 -4.5307 204 182 121 1752393037
0.99882 0.024214 -4.54041 204 182 121 1752393037
1.00096 0.048532 -4.55016 204 182 121 1752393037
1.00312 0.072954 -4.55996 204 182 121 1752393037
1.00528 0.097482 -4.56979 204 182 121 1752393037
1.00745 0.122116 -4.57967 204 182 121 1752393037
1.00964 0.146856 -4.58959 204 182 121 1752393037
1.01183 0.171704 -4.59955 204 182 121 1752393037
1.01403 0.19666 -4.60955 204 182 121 1752393037
0.870389 -1.55427 -3.88594 204 182 121 1752393037
0.871988 -1.53636 -3.89308 204 182 121 1752393037
0.873593 -1.51839 -3.90025 204 182 121 1752393037
0.875204 -1.50035 -3.90744 204 182 121 1752393037
0.876821 -1.48224 -3.91466 204 182 121 1752393037
0.878444 -1.46407 -3.9219 204 182 121 1752393037
0.880073 -1.44583 -3.92918 204 182 121 1752393037
0.881708 -1.42753 -3.93648 204 182 121 1752393037
0.883349 -1.40915 -3.9438 204 182 121 1752393037
0.884996 -1.39071 -3.95116 204 182 121 1752393037
0.886649 -1.3722 -3.95854 204 182 121 1752393037
0.888309 -1.35361 -3.96595 204 182 121 1752393037
0.889975 -1.33496 -3.97338 204 182 121 1752393037
0.891647 -1.31624 -3.98085 204 182 121 1752393037
0.893325 -1.29745 -3.98834 204 182 121 1752393037
0.895009 -1.27858 -3.99586 204 182 121 1752393037
0.896701 -1.25965 -4.00341 204 182 121 1752393037
0.898398 -1.24065 -4.01099 204 182 121 1752393037
0.900102 -1.22157 -4.0186 204 182 121 1752393037
0.901812 -1.20242 -4.02623 204 182 121 1752393037
0.903529 -1.18319 -4.0339 204 182 121 1752393037
0.905252 -1.1639 -4.04159 204 182 121 1752393037
0.906982 -1.14453 -4.04932 204 182 121 1752393037
0.908719 -1.12508 -4.05707 204 182 121 1752393037
0.910462 -1.10556 -4.06485 204 182 121 1752393037
0.912212 -1.08597 -4.07267 204 182 121 1752393037
0.913969 -1.0663 -4.08051 204 182 121 1752393037
0.915732 -1.04655 -4.08838 204 182 121 1752393037
0.917503 -1.02673 -4.09629 204 182 121 1752393037
0.91928 -1.00683 -4.10422 204 182 121 1752393037
0.921064 -0.986854 -4.11219 204 182 121 1752393037
0.922855 -0.9668 -4.12018 204 182 121 1752393037
0.924653 -0.946668 -4.12821 204 182 121 1752393037
0.926458 -0.926458 -4.13627 204 182 121 1752393037
0.92827 -0.906168 -4.14436 204 182 121 1752393037
0.930089 -0.885799 -4.15248 204 182 121 1752393037
0.931915 -0.86535 -4.16063 204 182 121 1752393037
0.933749 -0.84482 -4.16882 204 182 121 1752393037
0.935589 -0.82421 -4.17704 204 182 121 1752393037
0.937437 -0.803518 -4.18529 204 182 121 1752393037
0.939293 -0.782744 -4.19357 204 182 121 1752393037
0.941155 -0.761888 -4.20189 204 182 121 1752393037
0.943026 -0.740949 -4.21024 204 182 121 1752393037
0.944903 -0.719926 -4.21862 204 182 121 1752393037
0.946788 -0.69882 -4.22703 204 182 121 1752393037
0.948681 -0.677629 -4.23548 204 182 121 1752393037
0.950581 -0.656353 -4.24397 204 182 121 1752393037
0.952488 -0.634992 -4.25248 204 182 121 1752393037
0.954404 -0.613545 -4.26104 204 182 121 1752393037
0.956327 -0.592012 -4.26962 204 182 121 1752393037
0.958258 -0.570392 -4.27824 204 182 121 1752393037
0.960197 -0.548684 -4.2869 204 182 121 1752393037
0.962143 -0.526888 -4.29559 204 182 121 1752393037
0.964098 -0.505003 -4.30431 204 182 121 1752393037
0.96606 -0.48303 -4.31308 204 182 121 1752393037
0.968031 -0.460967 -4.32187 204 182 121 1752393037
0.970009 -0.438814 -4.33071 204 182 121 1752393037
0.971996 -0.41657 -4.33957 204 182 121 1752393037
0.97399 -0.394234 -4.34848 204 182 121 1752393037
0.975993 -0.371807 -4.35742 204 182 121 1752393037
0.978005 -0.349287 -4.3664 204 182 121 1752393037
0.980024 -0.326675 -4.37542 204 182 121 1752393037
0.982052 -0.303968 -4.38447 204 182 121 1752393037
0.984088 -0.281168 -4.39356 204 182 121 1752393037
0.986133 -0.258273 -4.40269 204 182 121 1752393037
0.988186 -0.235282 -4.41186 204 182 121 1752393037
0.990248 -0.212196 -4.42107 204 182 121 1752393037
0.992319 -0.189013 -4.43031 204 182 121 1752393037
0.994398 -0.165733 -4.43959 204 182 121 1752393037
0.996485 -0.142355 -4.44891 204 182 121 1752393037
0.998582 -0.118879 -4.45827 204 182 121 1752393037
1.00069 -0.095304 -4.46768 204 182 121 1752393037
1.0028 -0.071629 -4.47711 204 182 121 1752393037
1.00493 -0.047854 -4.48659 204 182 121 1752393037
1.00706 -0.023978 -4.49611 204 182 121 1752393037
1.0092 0 -4.50567 204 182 121 1752393037
1.01135 0.02408 -4.51528 204 182 121 1752393037
1.01351 0.048262 -4.52492 204 182 121 1752393037
1.01568 0.072548 -4.5346 204 182 121 1752393037
1.01786 0.096939 -4.54433 204 182 121 1752393037
1.02004 0.121434 -4.55409 204 182 121 1752393037
1.02224 0.146034 -4.5639 204 182 121 1752393037
1.02445 0.170741 -4.57375 204 182 121 1752393037
1.02666 0.195555 -4.58365 204 182 121 1752393037
1.02889 0.220476 -4.59359 204 182 121 1752393037
0.88173 -1.5469 -3.86751 204 182 121 1752393037
0.883342 -1.52906 -3.87458 204 182 121 1752393037
0.88496 -1.51116 -3.88168 204 182 121 1752393037
0.886585 -1.4932 -3.88881 204 182 121 1752393037
0.888215 -1.47516 -3.89596 204 182 121 1752393037
0.889851 -1.45707 -3.90313 204 182 121 1752393037
0.891493 -1.4389 -3.91034 204 182 121 1752393037
0.893141 -1.42067 -3.91757 204 182 121 1752393037
0.894796 -1.40237 -3.92482 204 182 121 1752393037
0.896456 -1.384 -3.93211 204 182 121 1752393037
0.898123 -1.36557 -3.93942 204 182 121 1752393037
0.899796 -1.34706 -3.94675 204 182 121 1752393037
0.901475 -1.32849 -3.95412 204 182 121 1752393037
0.90316 -1.30985 -3.96151 204 182 121 1752393037
0.904852 -1.29113 -3.96893 204 182 121 1752393037
0.90655 -1.27235 -3.97638 204 182 121 1752393037
0.908255 -1.2535 -3.98386 204 182 121 1752393037
0.909965 -1.23457 -3.99136 204 182 121 1752393037
0.911683 -1.21558 -3.99889 204 182 121 1752393037
0.913407 -1.19651 -4.00645 204 182 121 1752393037
0.915137 -1.17737 -4.01404 204 182 121 1752393037
0.916874 -1.15816 -4.02166 204 182 121 1752393037
0.918617 -1.13887 -4.02931 204 182 121 1752393037
0.920368 -1.11951 -4.03699 204 182 121 1752393037
0.922124 -1.10008 -4.04469 204 182 121 1752393037
0.923888 -1.08057 -4.05243 204 182 121 1752393037
0.925658 -1.06099 -4.06019 204 182 121 1752393037
0.927435 -1.04133 -4.06799 204 182 121 1752393037
0.929219 -1.0216 -4.07582 204 182 121 1752393037
0.93101 -1.00179 -4.08367 204 182 121 1752393037
0.932808 -0.981903 -4.09156 204 182 121 1752393037
0.934613 -0.96194 -4.09947 204 182 121 1752393037
0.936424 -0.941901 -4.10742 204 182 121 1752393037
0.938243 -0.921783 -4.1154 204 182 121 1752393037
0.940069 -0.901587 -4.1234 204 182 121 1752393037
0.941902 -0.881312 -4.13144 204 182 121 1752393037
0.943742 -0.860958 -4.13951 204 182 121 1752393037
0.945589 -0.840524 -4.14762 204 182 121 1752393037
0.947444 -0.82001 -4.15575 204 182 121 1752393037
0.949306 -0.799415 -4.16392 204 182 121 1752393037
0.951175 -0.77874 -4.17212 204 182 121 1752393037
0.953052 -0.757983 -4.18035 204 182 121 1752393037
0.954935 -0.737143 -4.18861 204 182 121 1752393037
0.956827 -0.716221 -4.19691 204 182 121 1752393037
0.958726 -0.695216 -4.20524 204 182 121 1752393037
0.960632 -0.674128 -4.2136 204 182 121 1752393037
0.962546 -0.652955 -4.222 204 182 121 1752393037
0.964468 -0.631698 -4.23043 204 182 121 1752393037
0.966398 -0.610356 -4.23889 204 182 121 1752393037
0.968335 -0.588929 -4.24739 204 182 121 1752393037
0.97028 -0.567415 -4.25592 204 182 121 1752393037
0.972233 -0.545815 -4.26448 204 182 121 1752393037
0.974193 -0.524127 -4.27308 204 182 121 1752393037
0.976162 -0.502352 -4.28172 204 182 121 1752393037
0.978138 -0.480489 -4.29039 204 182 121 1752393037
0.980123 -0.458537 -4.29909 204 182 121 1752393037
0.982116 -0.436496 -4.30783 204 182 121 1752393037
0.984116 -0.414365 -4.31661 204 182 121 1752393037
0.986125 -0.392143 -4.32542 204 182 121 1752393037
0.988142 -0.369831 -4.33427 204 182 121 1752393037
0.990168 -0.347427 -4.34315 204 182 121 1752393037
0.992201 -0.324931 -4.35207 204 182 121 1752393037
0.994244 -0.302343 -4.36103 204 182 121 1752393037
0.996294 -0.279661 -4.37002 204 182 121 1752393037
0.998353 -0.256886 -4.37905 204 182 121 1752393037
1.00042 -0.234017 -4.38812 204 182 121 1752393037
1.0025 -0.211052 -4.39723 204 182 121 1752393037
1.00458 -0.187992 -4.40637 204 182 121 1752393037
1.00668 -0.164836 -4.41556 204 182 121 1752393037
1.00878 -0.141583 -4.42478 204 182 121 1752393037
1.01089 -0.118233 -4.43403 204 182 121 1752393037
1.01301 -0.094784 -4.44333 204 182 121 1752393037
1.01514 -0.071238 -4.45267 204 182 121 1752393037
1.01727 -0.047592 -4.46205 204 182 121 1752393037
1.01942 -0.023846 -4.47146 204 182 121 1752393037
1.02158 0 -4.48092 204 182 121 1752393037
1.02374 0.023947 -4.49042 204 182 121 1752393037
1.02592 0.047996 -4.49995 204 182 121 1752393037
1.0281 0.072147 -4.50953 204 182 121 1752393037
1.03029 0.096402 -4.51915 204 182 121 1752393037
1.03249 0.12076 -4.52881 204 182 121 1752393037
1.03471 0.145222 -4.53851 204 182 121 1752393037
1.03693 0.169789 -4.54825 204 182 121 1752393037
1.03916 0.194462 -4.55803 204 182 121 1752393037
1.0414 0.219241 -4.56786 204 182 121 1752393037
0.892964 -1.53959 -3.84926 204 182 121 1752393037
0.894589 -1.52183 -3.85626 204 182 121 1752393037
0.896221 -1.504 -3.8633 204 182 121 1752393037
0.897858 -1.48611 -3.87035 204 182 121 1752393037
0.899501 -1.46815 -3.87743 204 182 121 1752393037
0.90115 -1.45013 -3.88454 204 182 121 1752393037
0.902805 -1.43203 -3.89168 204 182 121 1752393037
0.904466 -1.41388 -3.89884 204 182 121 1752393037
0.906133 -1.39565 -3.90603 204 182 121 1752393037
0.907807 -1.37736 -3.91324 204 182 121 1752393037
0.909486 -1.359 -3.92048 204 182 121 1752393037
0.911172 -1.34057 -3.92775 204 182 121 1752393037
0.912864 -1.32208 -3.93504 204 182 121 1752393037
0.914563 -1.30351 -3.94236 204 182 121 1752393037
0.916268 -1.28488 -3.94971 204 182 121 1752393037
0.917979 -1.26618 -3.95709 204 182 121 1752393037
0.919696 -1.2474 -3.96449 204 182 121 1752393037
0.92142 -1.22856 -3.97192 204 182 121 1752393037
0.923151 -1.20965 -3.97938 204 182 121 1752393037
0.924888 -1.19066 -3.98687 204 182 121 1752393037
0.926631 -1.1716 -3.99439 204 182 121 1752393037
0.928381 -1.15247 -4.00193 204 182 121 1752393037
0.930138 -1.13327 -4.0095 204 182 121 1752393037
0.931902 -1.114 -4.0171 204 182 121 1752393037
0.933672 -1.09465 -4.02473 204 182 121 1752393037
0.935448 -1.07523 -4.03239 204 182 121 1752393037
0.937232 -1.05573 -4.04008 204 182 121 1752393037
0.939022 -1.03616 -4.0478 204 182 121 1752393037
0.94082 -1.01652 -4.05555 204 182 121 1752393037
0.942624 -0.996798 -4.06332 204 182 121 1752393037
0.944435 -0.977002 -4.07113 204 182 121 1752393037
0.946253 -0.957129 -4.07897 204 182 121 1752393037
0.948078 -0.937181 -4.08683 204 182 121 1752393037
0.94991 -0.917155 -4.09473 204 182 121 1752393037
0.951749 -0.897051 -4.10266 204 182 121 1752393037
0.953596 -0.87687 -4.11062 204 182 121 1752393037
0.955449 -0.85661 -4.11861 204 182 121 1752393037
0.95731 -0.836271 -4.12663 204 182 121 1752393037
0.959178 -0.815853 -4.13468 204 182 121 1752393037
0.961053 -0.795355 -4.14277 204 182 121 1752393037
0.962936 -0.774776 -4.15088 204 182 121 1752393037
0.964826 -0.754117 -4.15903 204 182 121 1752393037
0.966724 -0.733377 -4.16721 204 182 121 1752393037
0.968629 -0.712555 -4.17542 204 182 121 1752393037
0.970541 -0.69165 -4.18367 204 182 121 1752393037
0.972461 -0.670663 -4.19194 204 182 121 1752393037
0.974389 -0.649593 -4.20025 204 182 121 1752393037
0.976324 -0.628439 -4.20859 204 182 121 1752393037
0.978267 -0.607201 -4.21697 204 182 121 1752393037
0.980218 -0.585877 -4.22538 204 182 121 1752393037
0.982177 -0.564469 -4.23382 204 182 121 1752393037
0.984143 -0.542976 -4.2423 204 182 121 1752393037
0.986118 -0.521396 -4.25081 204 182 121 1752393037
0.9881 -0.499729 -4.25936 204 182 121 1752393037
0.99009 -0.477975 -4.26793 204 182 121 1752393037
0.992088 -0.456133 -4.27655 204 182 121 1752393037
0.994095 -0.434202 -4.2852 204 182 121 1752393037
0.996109 -0.412183 -4.29388 204 182 121 1752393037
0.998132 -0.390075 -4.3026 204 182 121 1752393037
1.00016 -0.367876 -4.31135 204 182 121 1752393037
1.0022 -0.345587 -4.32014 204 182 121 1752393037
1.00425 -0.323207 -4.32897 204 182 121 1752393037
1.00631 -0.300735 -4.33783 204 182 121 1752393037
1.00837 -0.278171 -4.34673 204 182 121 1752393037
1.01044 -0.255514 -4.35567 204 182 121 1752393037
1.01252 -0.232764 -4.36464 204 182 121 1752393037
1.01461 -0.20992 -4.37365 204 182 121 1752393037
1.01671 -0.186982 -4.38269 204 182 121 1752393037
1.01882 -0.163948 -4.39178 204 182 121 1752393037
1.02094 -0.140819 -4.4009 204 182 121 1752393037
1.02306 -0.117593 -4.41006 204 182 121 1752393037
1.0252 -0.094271 -4.41926 204 182 121 1752393037
1.02734 -0.070851 -4.42849 204 182 121 1752393037
1.02949 -0.047333 -4.43777 204 182 121 1752393037
1.03165 -0.023716 -4.44708 204 182 121 1752393037
1.03382 0 -4.45644 204 182 121 1752393037
1.036 0.023816 -4.46583 204 182 121 1752393037
1.03819 0.047733 -4.47526 204 182 121 1752393037
1.04038 0.071751 -4.48473 204 182 121 1752393037
1.04259 0.09587 -4.49424 204 182 121 1752393037
1.04481 0.120093 -4.5038 204 182 121 1752393037
1.04703 0.144418 -4.51339 204 182 121 1752393037
1.04927 0.168848 -4.52302 204 182 121 1752393037
1.05151 0.193381 -4.5327 204 182 121 1752393037
1.05377 0.21802 -4.54242 204 182 121 1752393037
1.05603 0.242765 -4.55218 204 182 121 1752393037
0.904093 -1.53236 -3.83118 204 182 121 1752393037
0.905731 -1.51467 -3.83812 204 182 121 1752393037
0.907375 -1.49691 -3.84508 204 182 121 1752393037
0.909024 -1.47909 -3.85207 204 182 121 1752393037
0.91068 -1.4612 -3.85909 204 182 121 1752393037
0.912341 -1.44325 -3.86613 204 182 121 1752393037
0.914009 -1.42523 -3.8732 204 182 121 1752393037
0.915683 -1.40715 -3.88029 204 182 121 1752393037
0.917363 -1.389 -3.88741 204 182 121 1752393037
0.919049 -1.37078 -3.89455 204 182 121 1752393037
0.920741 -1.3525 -3.90172 204 182 121 1752393037
0.92244 -1.33415 -3.90892 204 182 121 1752393037
0.924144 -1.31573 -3.91615 204 182 121 1752393037
0.925856 -1.29724 -3.9234 204 182 121 1752393037
0.927573 -1.27869 -3.93068 204 182 121 1752393037
0.929297 -1.26006 -3.93798 204 182 121 1752393037
0.931027 -1.24137 -3.94531 204 182 121 1752393037
0.932764 -1.22261 -3.95267 204 182 121 1752393037
0.934507 -1.20377 -3.96006 204 182 121 1752393037
0.936257 -1.18487 -3.96747 204 182 121 1752393037
0.938014 -1.16589 -3.97492 204 182 121 1752393037
0.939776 -1.14685 -3.98239 204 182 121 1752393037
0.941546 -1.12773 -3.98989 204 182 121 1752393037
0.943322 -1.10854 -3.99741 204 182 121 1752393037
0.945105 -1.08927 -4.00497 204 182 121 1752393037
0.946895 -1.06994 -4.01255 204 182 121 1752393037
0.948692 -1.05053 -4.02017 204 182 121 1752393037
0.950495 -1.03104 -4.02781 204 182 121 1752393037
0.952305 -1.01149 -4.03548 204 182 121 1752393037
0.954122 -0.991856 -4.04318 204 182 121 1752393037
0.955946 -0.972149 -4.05091 204 182 121 1752393037
0.957778 -0.952366 -4.05867 204 182 121 1752393037
0.959616 -0.932508 -4.06646 204 182 121 1752393037
0.961461 -0.912573 -4.07428 204 182 121 1752393037
0.963313 -0.892561 -4.08213 204 182 121 1752393037
0.965173 -0.872472 -4.09001 204 182 121 1752393037
0.967039 -0.852306 -4.09792 204 182 121 1752393037
0.968913 -0.832061 -4.10586 204 182 121 1752393037
0.970794 -0.811737 -4.11383 204 182 121 1752393037
0.972683 -0.791335 -4.12183 204 182 121 1752393037
0.974578 -0.770853 -4.12986 204 182 121 1752393037
0.976481 -0.750291 -4.13793 204 182 121 1752393037
0.978392 -0.729648 -4.14603 204 182 121 1752393037
0.98031 -0.708925 -4.15415 204 182 121 1752393037
0.982236 -0.68812 -4.16231 204 182 121 1752393037
0.984169 -0.667234 -4.17051 204 182 121 1752393037
0.98611 -0.646264 -4.17873 204 182 121 1752393037
0.988059 -0.625212 -4.18699 204 182 121 1752393037
0.990015 -0.604077 -4.19528 204 182 121 1752393037
0.991979 -0.582858 -4.2036 204 182 121 1752393037
0.993951 -0.561554 -4.21196 204 182 121 1752393037
0.995931 -0.540166 -4.22035 204 182 121 1752393037
0.997918 -0.518692 -4.22877 204 182 121 1752393037
0.999914 -0.497132 -4.23723 204 182 121 1752393037
1.00192 -0.475486 -4.24572 204 182 121 1752393037
1.00393 -0.453753 -4.25424 204 182 121 1752393037
1.00595 -0.431933 -4.2628 204 182 121 1752393037
1.00798 -0.410024 -4.27139 204 182 121 1752393037
1.01001 -0.388027 -4.28002 204 182 121 1752393037
1.01206 -0.365941 -4.28868 204 182 121 1752393037
1.01411 -0.343766 -4.29738 204 182 121 1752393037
1.01617 -0.3215 -4.30611 204 182 121 1752393037
1.01824 -0.299144 -4.31488 204 182 121 1752393037
1.02032 -0.276696 -4.32369 204 182 121 1752393037
1.0224 -0.254157 -4.33253 204 182 121 1752393037
1.0245 -0.231525 -4.3414 204 182 121 1752393037
1.0266 -0.2088 -4.35032 204 182 121 1752393037
1.02871 -0.185982 -4.35927 204 182 121 1752393037
1.03084 -0.16307 -4.36826 204 182 121 1752393037
1.03296 -0.140063 -4.37728 204 182 121 1752393037
1.0351 -0.116961 -4.38634 204 182 121 1752393037
1.03725 -0.093763 -4.39544 204 182 121 1752393037
1.03941 -0.070468 -4.40458 204 182 121 1752393037
1.04157 -0.047077 -4.41375 204 182 121 1752393037
1.04375 -0.023587 -4.42297 204 182 121 1752393037
1.04593 0 -4.43222 204 182 121 1752393037
1.04812 0.023686 -4.44151 204 182 121 1752393037
1.05032 0.047472 -4.45084 204 182 121 1752393037
1.05253 0.071358 -4.46021 204 182 121 1752393037
1.05475 0.095345 -4.46961 204 182 121 1752393037
1.05698 0.119433 -4.47906 204 182 121 1752393037
1.05922 0.143623 -4.48855 204 182 121 1752393037
1.06147 0.167916 -4.49808 204 182 121 1752393037
1.06373 0.192313 -4.50765 204 182 121 1752393037
1.066 0.216813 -4.51726 204 182 121 1752393037
1.06827 0.241418 -4.52691 204 182 121 1752393037
1.07056 0.266128 -4.5366 204 182 121 1752393037
0.915118 -1.5252 -3.81326 204 182 121 1752393037
0.916768 -1.50757 -3.82014 204 182 121 1752393037
0.918424 -1.48989 -3.82704 204 182 121 1752393037
0.920085 -1.47214 -3.83396 204 182 121 1752393037
0.921753 -1.45432 -3.84091 204 182 121 1752393037
0.923427 -1.43644 -3.84789 204 182 121 1752393037
0.925107 -1.4185 -3.85489 204 182 121 1752393037
0.926793 -1.40049 -3.86191 204 182 121 1752393037
0.928486 -1.38241 -3.86897 204 182 121 1752393037
0.930184 -1.36427 -3.87604 204 182 121 1752393037
0.931889 -1.34606 -3.88315 204 182 121 1752393037
0.9336 -1.32779 -3.89028 204 182 121 1752393037
0.935317 -1.30944 -3.89743 204 182 121 1752393037
0.93704 -1.29103 -3.90461 204 182 121 1752393037
0.93877 -1.27255 -3.91182 204 182 121 1752393037
0.940507 -1.25401 -3.91906 204 182 121 1752393037
0.942249 -1.23539 -3.92632 204 182 121 1752393037
0.943999 -1.21671 -3.93361 204 182 121 1752393037
0.945754 -1.19796 -3.94092 204 182 121 1752393037
0.947517 -1.17913 -3.94827 204 182 121 1752393037
0.949285 -1.16024 -3.95564 204 182 121 1752393037
0.951061 -1.14127 -3.96304 204 182 121 1752393037
0.952843 -1.12224 -3.97046 204 182 121 1752393037
0.954632 -1.10313 -3.97792 204 182 121 1752393037
0.956427 -1.08395 -3.9854 204 182 121 1752393037
0.95823 -1.0647 -3.99291 204 182 121 1752393037
0.960039 -1.04538 -4.00045 204 182 121 1752393037
0.961855 -1.02598 -4.00801 204 182 121 1752393037
0.963678 -1.00651 -4.01561 204 182 121 1752393037
0.965507 -0.986963 -4.02323 204 182 121 1752393037
0.967344 -0.967344 -4.03089 204 182 121 1752393037
0.969188 -0.94765 -4.03857 204 182 121 1752393037
0.971039 -0.927881 -4.04628 204 182 121 1752393037
0.972896 -0.908037 -4.05402 204 182 121 1752393037
0.974761 -0.888116 -4.0618 204 182 121 1752393037
0.976634 -0.868119 -4.0696 204 182 121 1752393037
0.978513 -0.848045 -4.07743 204 182 121 1752393037
0.9804 -0.827893 -4.08529 204 182 121 1752393037
0.982293 -0.807663 -4.09318 204 182 121 1752393037
0.984195 -0.787356 -4.1011 204 182 121 1752393037
0.986103 -0.766969 -4.10906 204 182 121 1752393037
0.988019 -0.746503 -4.11704 204 182 121 1752393037
0.989943 -0.725958 -4.12506 204 182 121 1752393037
0.991874 -0.705332 -4.1331 204 182 121 1752393037
0.993812 -0.684626 -4.14118 204 182 121 1752393037
0.995758 -0.663839 -4.14929 204 182 121 1752393037
0.997712 -0.64297 -4.15743 204 182 121 1752393037
0.999673 -0.622019 -4.1656 204 182 121 1752393037
1.00164 -0.600986 -4.17381 204 182 121 1752393037
1.00362 -0.579869 -4.18205 204 182 121 1752393037
1.0056 -0.558669 -4.19032 204 182 121 1752393037
1.0076 -0.537385 -4.19862 204 182 121 1752393037
1.0096 -0.516016 -4.20696 204 182 121 1752393037
1.01161 -0.494563 -4.21532 204 182 121 1752393037
1.01362 -0.473024 -4.22373 204 182 121 1752393037
1.01565 -0.451399 -4.23216 204 182 121 1752393037
1.01768 -0.429687 -4.24063 204 182 121 1752393037
1.01972 -0.407888 -4.24914 204 182 121 1752393037
1.02177 -0.386002 -4.25768 204 182 121 1752393037
1.02383 -0.364027 -4.26625 204 182 121 1752393037
1.02589 -0.341964 -4.27486 204 182 121 1752393037
1.02797 -0.319812 -4.2835 204 182 121 1752393037
1.03005 -0.29757 -4.29217 204 182 121 1752393037
1.03214 -0.275237 -4.30089 204 182 121 1752393037
1.03424 -0.252814 -4.30963 204 182 121 1752393037
1.03635 -0.230299 -4.31842 204 182 121 1752393037
1.03846 -0.207693 -4.32724 204 182 121 1752393037
1.04059 -0.184993 -4.33609 204 182 121 1752393037
1.04272 -0.162201 -4.34498 204 182 121 1752393037
1.04486 -0.139315 -4.35391 204 182 121 1752393037
1.04701 -0.116335 -4.36287 204 182 121 1752393037
1.04918 -0.09326 -4.37188 204 182 121 1752393037
1.05134 -0.07009 -4.38092 204 182 121 1752393037
1.05352 -0.046823 -4.38999 204 182 121 1752393037
1.05571 -0.02346 -4.39911 204 182 121 1752393037
1.05791 0 -4.40826 204 182 121 1752393037
1.06011 0.023558 -4.41745 204 182 121 1752393037
1.06233 0.047215 -4.42668 204 182 121 1752393037
1.06455 0.07097 -4.43595 204 182 121 1752393037
1.06678 0.094825 -4.44525 204 182 121 1752393037
1.06903 0.118781 -4.4546 204 182 121 1752393037
1.07128 0.142837 -4.46398 204 182 121 1752393037
1.07354 0.166995 -4.47341 204 182 121 1752393037
1.07581 0.191255 -4.48287 204 182 121 1752393037
1.07809 0.215619 -4.49237 204 182 121 1752393037
1.08038 0.240085 -4.50192 204 182 121 1752393037
1.08268 0.264656 -4.51151 204 182 121 1752393037
0.92604 -1.5181 -3.79552 204 182 121 1752393037
0.927702 -1.50055 -3.80233 204 182 121 1752393037
0.92937 -1.48293 -3.80916 204 182 121 1752393037
0.931043 -1.46525 -3.81602 204 182 121 1752393037
0.932723 -1.4475 -3.82291 204 182 121 1752393037
0.934409 -1.4297 -3.82982 204 182 121 1752393037
0.936101 -1.41182 -3.83675 204 182 121 1752393037
0.937799 -1.39389 -3.84371 204 182 121 1752393037
0.939503 -1.37589 -3.8507 204 182 121 1752393037
0.941214 -1.35782 -3.85771 204 182 121 1752393037
0.942931 -1.33968 -3.86474 204 182 121 1752393037
0.944654 -1.32148 -3.87181 204 182 121 1752393037
0.946383 -1.30322 -3.8789 204 182 121 1752393037
0.948118 -1.28488 -3.88601 204 182 121 1752393037
0.949861 -1.26648 -3.89315 204 182 121 1752393037
0.951609 -1.24801 -3.90032 204 182 121 1752393037
0.953364 -1.22948 -3.90751 204 182 121 1752393037
0.955125 -1.21087 -3.91473 204 182 121 1752393037
0.956893 -1.1922 -3.92197 204 182 121 1752393037
0.958668 -1.17345 -3.92924 204 182 121 1752393037
0.960448 -1.15464 -3.93654 204 182 121 1752393037
0.962236 -1.13575 -3.94387 204 182 121 1752393037
0.964031 -1.1168 -3.95123 204 182 121 1752393037
0.965832 -1.09778 -3.95861 204 182 121 1752393037
0.967639 -1.07868 -3.96602 204 182 121 1752393037
0.969454 -1.05951 -3.97345 204 182 121 1752393037
0.971275 -1.04027 -3.98092 204 182 121 1752393037
0.973104 -1.02096 -3.98841 204 182 121 1752393037
0.974939 -1.00158 -3.99593 204 182 121 1752393037
0.976781 -0.982118 -4.00349 204 182 121 1752393037
0.97863 -0.962587 -4.01106 204 182 121 1752393037
0.980486 -0.942981 -4.01867 204 182 121 1752393037
0.982349 -0.923301 -4.02631 204 182 121 1752393037
0.984219 -0.903545 -4.03397 204 182 121 1752393037
0.986096 -0.883715 -4.04167 204 182 121 1752393037
0.987981 -0.863808 -4.04939 204 182 121 1752393037
0.989873 -0.843826 -4.05715 204 182 121 1752393037
0.991772 -0.823767 -4.06493 204 182 121 1752393037
0.993678 -0.80363 -4.07274 204 182 121 1752393037
0.995592 -0.783416 -4.08058 204 182 121 1752393037
0.997512 -0.763124 -4.08846 204 182 121 1752393037
0.999441 -0.742754 -4.09636 204 182 121 1752393037
1.00138 -0.722305 -4.1043 204 182 121 1752393037
1.00332 -0.701776 -4.11226 204 182 121 1752393037
1.00527 -0.681167 -4.12026 204 182 121 1752393037
1.00723 -0.660479 -4.12828 204 182 121 1752393037
1.0092 -0.639709 -4.13634 204 182 121 1752393037
1.01117 -0.618858 -4.14443 204 182 121 1752393037
1.01315 -0.597926 -4.15256 204 182 121 1752393037
1.01514 -0.576911 -4.16071 204 182 121 1752393037
1.01714 -0.555813 -4.1689 204 182 121 1752393037
1.01914 -0.534633 -4.17711 204 182 121 1752393037
1.02116 -0.513368 -4.18537 204 182 121 1752393037
1.02318 -0.49202 -4.19365 204 182 121 1752393037
1.02521 -0.470587 -4.20197 204 182 121 1752393037
1.02724 -0.449068 -4.21032 204 182 121 1752393037
1.02929 -0.427464 -4.2187 204 182 121 1752393037
1.03134 -0.405774 -4.22711 204 182 121 1752393037
1.0334 -0.383997 -4.23556 204 182 121 1752393037
1.03547 -0.362133 -4.24405 204 182 121 1752393037
1.03755 -0.340181 -4.25256 204 182 121 1752393037
1.03964 -0.318141 -4.26112 204 182 121 1752393037
1.04173 -0.296012 -4.2697 204 182 121 1752393037
1.04384 -0.273793 -4.27833 204 182 121 1752393037
1.04595 -0.251485 -4.28698 204 182 121 1752393037
1.04807 -0.229086 -4.29567 204 182 121 1752393037
1.0502 -0.206596 -4.3044 204 182 121 1752393037
1.05234 -0.184015 -4.31316 204 182 121 1752393037
1.05448 -0.161342 -4.32196 204 182 121 1752393037
1.05664 -0.138575 -4.33079 204 182 121 1752393037
1.0588 -0.115716 -4.33966 204 182 121 1752393037
1.06097 -0.092763 -4.34857 204 182 121 1752393037
1.06316 -0.069715 -4.35751 204 182 121 1752393037
1.06535 -0.046573 -4.36649 204 182 121 1752393037
1.06755 -0.023334 -4.37551 204 182 121 1752393037
1.06976 0 -4.38456 204 182 121 1752393037
1.07197 0.023431 -4.39365 204 182 121 1752393037
1.0742 0.04696 -4.40278 204 182 121 1752393037
1.07644 0.070586 -4.41195 204 182 121 1752393037
1.07869 0.094311 -4.42115 204 182 121 1752393037
1.08094 0.118136 -4.4304 204 182 121 1752393037
1.0832 0.14206 -4.43968 204 182 121 1752393037
1.08548 0.166084 -4.449 204 182 121 1752393037
1.08776 0.19021 -4.45836 204 182 121 1752393037
1.09006 0.214437 -4.46776 204 182 121 1752393037
1.09236 0.238767 -4.4772 204 182 121 1752393037
1.09467 0.2632 -4.48668 204 182 121 1752393037
1.097 0.287737 -4.49621 204 182 121 1752393037
0.936861 -1.51107 -3.77794 204 182 121 1752393037
0.938535 -1.49358 -3.78468 204 182 121 1752393037
0.940214 -1.47603 -3.79146 204 182 121 1752393037
0.941899 -1.45842 -3.79825 204 182 121 1752393037
0.943591 -1.44075 -3.80507 204 182 121 1752393037
0.945288 -1.42301 -3.81192 204 182 121 1752393037
0.946992 -1.40521 -3.81879 204 182 121 1752393037
0.948702 -1.38735 -3.82568 204 182 121 1752393037
0.950418 -1.36942 -3.8326 204 182 121 1752393037
0.95214 -1.35142 -3.83955 204 182 121 1752393037
