ply
format ascii 1.0
comment PCL generated
obj_info is_cyberware_data 0
obj_info is_mesh 0
obj_info is_warped 0
obj_info is_interlaced 0
obj_info num_cols 22800
obj_info num_rows 1
obj_info echo_rgb_offset_x 0
obj_info echo_rgb_offset_y 0
obj_info echo_rgb_offset_z 0
obj_info echo_rgb_frontfocus 0.0
obj_info echo_rgb_backfocus 0.0
obj_info echo_rgb_pixelsize 0.0
obj_info echo_rgb_centerpixel 0
obj_info echo_frames 1
obj_info echo_lgincr 0.0
element vertex 927
property float x
property float y
property float z
property uchar red
property uchar green
property uchar blue
property uint label
end_header
-0.767932 -0.966225 -2.70418 204 182 121 1752393037
-0.769898 -0.954239 -2.7111 204 182 121 1752393037
-0.771873 -0.942192 -2.71806 204 182 121 1752393037
-0.773858 -0.930083 -2.72505 204 182 121 1752393037
-0.775854 -0.917911 -2.73207 204 182 121 1752393037
-0.77786 -0.905677 -2.73914 204 182 121 1752393037
-0.779876 -0.893379 -2.74624 204 182 121 1752393037
-0.781903 -0.881017 -2.75338 204 182 121 1752393037
-0.78394 -0.868591 -2.76055 204 182 121 1752393037
-0.785988 -0.8561 -2.76776 204 182 121 1752393037
-0.788047 -0.843543 -2.77501 204 182 121 1752393037
-0.790117 -0.830921 -2.7823 204 182 121 1752393037
-0.792197 -0.818232 -2.78962 204 182 121 1752393037
-0.794288 -0.805476 -2.79699 204 182 121 1752393037
-0.796391 -0.792652 -2.80439 204 182 121 1752393037
-0.798505 -0.77976 -2.81184 204 182 121 1752393037
-0.80063 -0.7668 -2.81932 204 182 121 1752393037
-0.802766 -0.753771 -2.82684 204 182 121 1752393037
-0.804913 -0.740672 -2.8344 204 182 121 1752393037
-0.807073 -0.727502 -2.84201 204 182 121 1752393037
-0.809244 -0.714262 -2.84965 204 182 121 1752393037
-0.811426 -0.70095 -2.85734 204 182 121 1752393037
-0.81362 -0.687566 -2.86507 204 182 121 1752393037
-0.815827 -0.67411 -2.87283 204 182 121 1752393037
-0.818045 -0.660581 -2.88065 204 182 121 1752393037
-0.820275 -0.646978 -2.8885 204 182 121 1752393037
-0.822518 -0.6333 -2.8964 204 182 121 1752393037
-0.824772 -0.619547 -2.90434 204 182 121 1752393037
-0.82704 -0.605719 -2.91232 204 182 121 1752393037
-0.829319 -0.591815 -2.92035 204 182 121 1752393037
-0.831612 -0.577834 -2.92842 204 182 121 1752393037
-0.833917 -0.563775 -2.93654 204 182 121 1752393037
-0.836235 -0.549638 -2.9447 204 182 121 1752393037
-0.838565 -0.535422 -2.9529 204 182 121 1752393037
-0.840909 -0.521127 -2.96116 204 182 121 1752393037
-0.843266 -0.506751 -2.96946 204 182 121 1752393037
-0.845636 -0.492295 -2.9778 204 182 121 1752393037
-0.84802 -0.477758 -2.9862 204 182 121 1752393037
-0.850417 -0.463138 -2.99464 204 182 121 1752393037
-0.852827 -0.448435 -3.00313 204 182 121 1752393037
-0.855252 -0.433649 -3.01167 204 182 121 1752393037
-0.85769 -0.418778 -3.02025 204 182 121 1752393037
-0.860142 -0.403823 -3.02888 204 182 121 1752393037
-0.862608 -0.388781 -3.03757 204 182 121 1752393037
-0.865088 -0.373653 -3.0463 204 182 121 1752393037
-0.867583 -0.358438 -3.05509 204 182 121 1752393037
-0.870092 -0.343135 -3.06392 204 182 121 1752393037
-0.872616 -0.327743 -3.07281 204 182 121 1752393037
-0.875154 -0.312261 -3.08175 204 182 121 1752393037
-0.877707 -0.29669 -3.09074 204 182 121 1752393037
-0.880275 -0.281027 -3.09978 204 182 121 1752393037
-0.882858 -0.265272 -3.10888 204 182 121 1752393037
-0.885457 -0.249424 -3.11803 204 182 121 1752393037
-0.88807 -0.233483 -3.12723 204 182 121 1752393037
-0.890699 -0.217448 -3.13649 204 182 121 1752393037
-0.893344 -0.201317 -3.1458 204 182 121 1752393037
-0.896005 -0.18509 -3.15517 204 182 121 1752393037
-0.898681 -0.168766 -3.16459 204 182 121 1752393037
-0.901373 -0.152345 -3.17408 204 182 121 1752393037
-0.904082 -0.135825 -3.18361 204 182 121 1752393037
-0.906807 -0.119205 -3.19321 204 182 121 1752393037
-0.909548 -0.102484 -3.20286 204 182 121 1752393037
-0.912306 -0.085663 -3.21257 204 182 121 1752393037
-0.915081 -0.068738 -3.22235 204 182 121 1752393037
-0.917873 -0.051711 -3.23218 204 182 121 1752393037
-0.920682 -0.03458 -3.24207 204 182 121 1752393037
-0.923508 -0.017343 -3.25202 204 182 121 1752393037
-0.926351 0 -3.26203 204 182 121 1752393037
-0.929212 0.01745 -3.27211 204 182 121 1752393037
-0.932091 0.035008 -3.28224 204 182 121 1752393037
-0.934988 0.052675 -3.29244 204 182 121 1752393037
-0.937902 0.070453 -3.30271 204 182 121 1752393037
-0.940835 0.088341 -3.31304 204 182 121 1752393037
-0.943787 0.106342 -3.32343 204 182 121 1752393037
-0.946757 0.124456 -3.33389 204 182 121 1752393037
-0.949745 0.142685 -3.34441 204 182 121 1752393037
-0.952753 0.161029 -3.355 204 182 121 1752393037
-0.955779 0.179489 -3.36566 204 182 121 1752393037
-0.958825 0.198067 -3.37639 204 182 121 1752393037
-0.961891 0.216764 -3.38718 204 182 121 1752393037
-0.964976 0.235581 -3.39805 204 182 121 1752393037
-0.968081 0.254519 -3.40898 204 182 121 1752393037
-0.971206 0.273579 -3.41998 204 182 121 1752393037
-0.974351 0.292763 -3.43106 204 182 121 1752393037
-0.977517 0.312071 -3.44221 204 182 121 1752393037
-0.980704 0.331505 -3.45343 204 182 121 1752393037
-0.983911 0.351067 -3.46472 204 182 121 1752393037
-0.987139 0.370756 -3.47609 204 182 121 1752393037
-0.990389 0.390576 -3.48753 204 182 121 1752393037
-0.993659 0.410526 -3.49905 204 182 121 1752393037
-0.996952 0.430608 -3.51064 204 182 121 1752393037
-1.00027 0.450824 -3.52232 204 182 121 1752393037
-1.0036 0.471175 -3.53407 204 182 121 1752393037
-1.00696 0.491662 -3.54589 204 182 121 1752393037
-1.01034 0.512287 -3.5578 204 182 121 1752393037
-1.01375 0.533051 -3.56979 204 182 121 1752393037
-1.01717 0.553955 -3.58186 204 182 121 1752393037
-1.02063 0.575001 -3.59401 204 182 121 1752393037
-1.0241 0.59619 -3.60624 204 182 121 1752393037
-1.0276 0.617524 -3.61856 204 182 121 1752393037
-1.03112 0.639004 -3.63096 204 182 121 1752393037
-1.03467 0.660632 -3.64345 204 182 121 1752393037
-1.03824 0.682409 -3.65602 204 182 121 1752393037
-1.04183 0.704337 -3.66868 204 182 121 1752393037
-1.04545 0.726417 -3.68143 204 182 121 1752393037
-1.0491 0.748652 -3.69427 204 182 121 1752393037
-0.741966 -1.05995 -2.65007 204 182 121 1752393037
-0.743827 -1.04844 -2.65671 204 182 121 1752393037
-0.745696 -1.03687 -2.66339 204 182 121 1752393037
-0.747576 -1.02525 -2.6701 204 182 121 1752393037
-0.749465 -1.01356 -2.67685 204 182 121 1752393037
-0.751363 -1.00182 -2.68363 204 182 121 1752393037
-0.753271 -0.990014 -2.69045 204 182 121 1752393037
-0.755189 -0.97815 -2.6973 204 182 121 1752393037
-0.757117 -0.966225 -2.70418 204 182 121 1752393037
-0.759054 -0.954239 -2.7111 204 182 121 1752393037
-0.761001 -0.942192 -2.71806 204 182 121 1752393037
-0.762959 -0.930083 -2.72505 204 182 121 1752393037
-0.764926 -0.917912 -2.73207 204 182 121 1752393037
-0.766904 -0.905677 -2.73914 204 182 121 1752393037
-0.768892 -0.893379 -2.74624 204 182 121 1752393037
-0.77089 -0.881017 -2.75338 204 182 121 1752393037
-0.772899 -0.868591 -2.76055 204 182 121 1752393037
-0.774918 -0.8561 -2.76776 204 182 121 1752393037
-0.776948 -0.843543 -2.77501 204 182 121 1752393037
-0.778988 -0.830921 -2.7823 204 182 121 1752393037
-0.781039 -0.818232 -2.78962 204 182 121 1752393037
-0.783101 -0.805476 -2.79699 204 182 121 1752393037
-0.785174 -0.792652 -2.80439 204 182 121 1752393037
-0.787258 -0.77976 -2.81184 204 182 121 1752393037
-0.789353 -0.7668 -2.81932 204 182 121 1752393037
-0.791459 -0.753771 -2.82684 204 182 121 1752393037
-0.793576 -0.740671 -2.8344 204 182 121 1752393037
-0.795705 -0.727502 -2.84201 204 182 121 1752393037
-0.797846 -0.714262 -2.84965 204 182 121 1752393037
-0.799998 -0.70095 -2.85734 204 182 121 1752393037
-0.802161 -0.687567 -2.86507 204 182 121 1752393037
-0.804336 -0.67411 -2.87283 204 182 121 1752393037
-0.806523 -0.660581 -2.88065 204 182 121 1752393037
-0.808722 -0.646978 -2.8885 204 182 121 1752393037
-0.810933 -0.6333 -2.8964 204 182 121 1752393037
-0.813156 -0.619547 -2.90434 204 182 121 1752393037
-0.815391 -0.605719 -2.91232 204 182 121 1752393037
-0.817639 -0.591815 -2.92035 204 182 121 1752393037
-0.819899 -0.577834 -2.92842 204 182 121 1752393037
-0.822171 -0.563775 -2.93654 204 182 121 1752393037
-0.824457 -0.549638 -2.9447 204 182 121 1752393037
-0.826755 -0.535422 -2.95291 204 182 121 1752393037
-0.829065 -0.521127 -2.96116 204 182 121 1752393037
-0.831389 -0.506751 -2.96946 204 182 121 1752393037
-0.833726 -0.492295 -2.9778 204 182 121 1752393037
-0.836076 -0.477758 -2.9862 204 182 121 1752393037
-0.838439 -0.463138 -2.99464 204 182 121 1752393037
-0.840816 -0.448435 -3.00313 204 182 121 1752393037
-0.843206 -0.433649 -3.01167 204 182 121 1752393037
-0.84561 -0.418778 -3.02025 204 182 121 1752393037
-0.848027 -0.403823 -3.02888 204 182 121 1752393037
-0.850459 -0.388781 -3.03757 204 182 121 1752393037
-0.852904 -0.373653 -3.0463 204 182 121 1752393037
-0.855363 -0.358438 -3.05509 204 182 121 1752393037
-0.857837 -0.343135 -3.06392 204 182 121 1752393037
-0.860325 -0.327743 -3.07281 204 182 121 1752393037
-0.862828 -0.312261 -3.08175 204 182 121 1752393037
-0.865345 -0.29669 -3.09074 204 182 121 1752393037
-0.867877 -0.281027 -3.09978 204 182 121 1752393037
-0.870423 -0.265272 -3.10888 204 182 121 1752393037
-0.872985 -0.249424 -3.11803 204 182 121 1752393037
-0.875562 -0.233483 -3.12723 204 182 121 1752393037
-0.878154 -0.217448 -3.13649 204 182 121 1752393037
-0.880762 -0.201317 -3.1458 204 182 121 1752393037
-0.883385 -0.18509 -3.15517 204 182 121 1752393037
-0.886023 -0.168766 -3.16459 204 182 121 1752393037
-0.888678 -0.152345 -3.17408 204 182 121 1752393037
-0.891348 -0.135824 -3.18361 204 182 121 1752393037
-0.894035 -0.119205 -3.19321 204 182 121 1752393037
-0.896738 -0.102484 -3.20286 204 182 121 1752393037
-0.899457 -0.085663 -3.21257 204 182 121 1752393037
-0.902193 -0.068738 -3.22235 204 182 121 1752393037
-0.904945 -0.051711 -3.23218 204 182 121 1752393037
-0.907714 -0.03458 -3.24207 204 182 121 1752393037
-0.9105 -0.017343 -3.25202 204 182 121 1752393037
-0.913304 0 -3.26203 204 182 121 1752393037
-0.916125 0.01745 -3.27211 204 182 121 1752393037
-0.918963 0.035008 -3.28224 204 182 121 1752393037
-0.921819 0.052675 -3.29244 204 182 121 1752393037
-0.924692 0.070453 -3.30271 204 182 121 1752393037
-0.927584 0.088341 -3.31304 204 182 121 1752393037
-0.930494 0.106342 -3.32343 204 182 121 1752393037
-0.933422 0.124456 -3.33389 204 182 121 1752393037
-0.936368 0.142685 -3.34441 204 182 121 1752393037
-0.939334 0.161029 -3.355 204 182 121 1752393037
-0.942318 0.179489 -3.36566 204 182 121 1752393037
-0.945321 0.198067 -3.37639 204 182 121 1752393037
-0.948343 0.216764 -3.38718 204 182 121 1752393037
-0.951385 0.235581 -3.39805 204 182 121 1752393037
-0.954446 0.254519 -3.40898 204 182 121 1752393037
-0.957527 0.273579 -3.41998 204 182 121 1752393037
-0.960628 0.292763 -3.43106 204 182 121 1752393037
-0.963749 0.312071 -3.44221 204 182 121 1752393037
-0.966891 0.331505 -3.45343 204 182 121 1752393037
-0.970053 0.351067 -3.46472 204 182 121 1752393037
-0.973235 0.370756 -3.47609 204 182 121 1752393037
-0.976439 0.390576 -3.48753 204 182 121 1752393037
-0.979664 0.410526 -3.49905 204 182 121 1752393037
-0.98291 0.430608 -3.51064 204 182 121 1752393037
-0.986178 0.450824 -3.52232 204 182 121 1752393037
-0.989468 0.471175 -3.53407 204 182 121 1752393037
-0.99278 0.491662 -3.54589 204 182 121 1752393037
-0.996113 0.512287 -3.5578 204 182 121 1752393037
-0.99947 0.533051 -3.56979 204 182 121 1752393037
-1.00285 0.553955 -3.58186 204 182 121 1752393037
-1.00625 0.575 -3.59401 204 182 121 1752393037
-1.00968 0.59619 -3.60624 204 182 121 1752393037
-1.01312 0.617524 -3.61856 204 182 121 1752393037
-1.0166 0.639004 -3.63096 204 182 121 1752393037
-1.02009 0.660632 -3.64345 204 182 121 1752393037
-1.02361 0.682409 -3.65602 204 182 121 1752393037
-1.02716 0.704337 -3.66868 204 182 121 1752393037
-1.03073 0.726417 -3.68143 204 182 121 1752393037
-1.03432 0.748652 -3.69427 204 182 121 1752393037
-0.731367 -1.05995 -2.65007 204 182 121 1752393037
-0.7332 -1.04844 -2.65671 204 182 121 1752393037
-0.735044 -1.03687 -2.66339 204 182 121 1752393037
-0.736896 -1.02525 -2.6701 204 182 121 1752393037
-0.738758 -1.01356 -2.67685 204 182 121 1752393037
-0.740629 -1.00182 -2.68363 204 182 121 1752393037
-0.74251 -0.990014 -2.69045 204 182 121 1752393037
-0.744401 -0.97815 -2.6973 204 182 121 1752393037
-0.746301 -0.966225 -2.70418 204 182 121 1752393037
-0.74821 -0.954239 -2.7111 204 182 121 1752393037
-0.75013 -0.942192 -2.71806 204 182 121 1752393037
-0.752059 -0.930083 -2.72505 204 182 121 1752393037
-0.753999 -0.917912 -2.73207 204 182 121 1752393037
-0.755948 -0.905677 -2.73914 204 182 121 1752393037
-0.757908 -0.893379 -2.74624 204 182 121 1752393037
-0.759877 -0.881017 -2.75338 204 182 121 1752393037
-0.761857 -0.868591 -2.76055 204 182 121 1752393037
-0.763848 -0.8561 -2.76776 204 182 121 1752393037
-0.765848 -0.843543 -2.77501 204 182 121 1752393037
-0.76786 -0.830921 -2.7823 204 182 121 1752393037
-0.769882 -0.818232 -2.78962 204 182 121 1752393037
-0.771914 -0.805476 -2.79699 204 182 121 1752393037
-0.773957 -0.792652 -2.80439 204 182 121 1752393037
-0.776011 -0.77976 -2.81184 204 182 121 1752393037
-0.778076 -0.7668 -2.81932 204 182 121 1752393037
-0.780153 -0.753771 -2.82684 204 182 121 1752393037
-0.78224 -0.740671 -2.8344 204 182 121 1752393037
-0.784338 -0.727502 -2.84201 204 182 121 1752393037
-0.786448 -0.714262 -2.84965 204 182 121 1752393037
-0.788569 -0.70095 -2.85734 204 182 121 1752393037
-0.790702 -0.687567 -2.86507 204 182 121 1752393037
-0.792846 -0.67411 -2.87283 204 182 121 1752393037
-0.795001 -0.660581 -2.88065 204 182 121 1752393037
-0.797169 -0.646978 -2.8885 204 182 121 1752393037
-0.799348 -0.6333 -2.8964 204 182 121 1752393037
-0.80154 -0.619547 -2.90434 204 182 121 1752393037
-0.803743 -0.605719 -2.91232 204 182 121 1752393037
-0.805958 -0.591815 -2.92035 204 182 121 1752393037
-0.808186 -0.577834 -2.92842 204 182 121 1752393037
-0.810426 -0.563775 -2.93654 204 182 121 1752393037
-0.812679 -0.549638 -2.9447 204 182 121 1752393037
-0.814944 -0.535422 -2.9529 204 182 121 1752393037
-0.817222 -0.521127 -2.96116 204 182 121 1752393037
-0.819512 -0.506751 -2.96946 204 182 121 1752393037
-0.821815 -0.492295 -2.9778 204 182 121 1752393037
-0.824132 -0.477758 -2.9862 204 182 121 1752393037
-0.826461 -0.463138 -2.99464 204 182 121 1752393037
-0.828804 -0.448435 -3.00313 204 182 121 1752393037
-0.83116 -0.433649 -3.01167 204 182 121 1752393037
-0.83353 -0.418778 -3.02025 204 182 121 1752393037
-0.835913 -0.403823 -3.02888 204 182 121 1752393037
-0.838309 -0.388781 -3.03757 204 182 121 1752393037
-0.84072 -0.373653 -3.0463 204 182 121 1752393037
-0.843144 -0.358438 -3.05509 204 182 121 1752393037
-0.845582 -0.343135 -3.06392 204 182 121 1752393037
-0.848035 -0.327743 -3.07281 204 182 121 1752393037
-0.850502 -0.312261 -3.08175 204 182 121 1752393037
-0.852983 -0.29669 -3.09074 204 182 121 1752393037
-0.855479 -0.281027 -3.09978 204 182 121 1752393037
-0.857989 -0.265272 -3.10888 204 182 121 1752393037
-0.860514 -0.249424 -3.11803 204 182 121 1752393037
-0.863054 -0.233483 -3.12723 204 182 121 1752393037
-0.865609 -0.217448 -3.13649 204 182 121 1752393037
-0.868179 -0.201317 -3.1458 204 182 121 1752393037
-0.870765 -0.18509 -3.15517 204 182 121 1752393037
-0.873366 -0.168766 -3.16459 204 182 121 1752393037
-0.875982 -0.152345 -3.17408 204 182 121 1752393037
-0.878615 -0.135825 -3.18361 204 182 121 1752393037
-0.881263 -0.119205 -3.19321 204 182 121 1752393037
-0.883927 -0.102484 -3.20286 204 182 121 1752393037
-0.886607 -0.085663 -3.21257 0 0 0 1752393037
-0.889304 -0.068738 -3.22235 204 182 121 1752393037
-0.892017 -0.051711 -3.23218 204 182 121 1752393037
-0.894747 -0.03458 -3.24207 204 182 121 1752393037
-0.897493 -0.017343 -3.25202 204 182 121 1752393037
-0.900257 0 -3.26203 204 182 121 1752393037
-0.903037 0.01745 -3.27211 204 182 121 1752393037
-0.905835 0.035008 -3.28224 204 182 121 1752393037
-0.90865 0.052675 -3.29244 204 182 121 1752393037
-0.911483 0.070453 -3.30271 204 182 121 1752393037
-0.914333 0.088341 -3.31304 204 182 121 1752393037
-0.917201 0.106342 -3.32343 204 182 121 1752393037
-0.920087 0.124456 -3.33389 204 182 121 1752393037
-0.922992 0.142685 -3.34441 204 182 121 1752393037
-0.925914 0.161029 -3.355 204 182 121 1752393037
-0.928856 0.179489 -3.36566 204 182 121 1752393037
-0.931816 0.198067 -3.37639 204 182 121 1752393037
-0.934795 0.216764 -3.38718 204 182 121 1752393037
-0.937794 0.235581 -3.39805 204 182 121 1752393037
-0.940811 0.254519 -3.40898 204 182 121 1752393037
-0.943848 0.273579 -3.41998 204 182 121 1752393037
-0.946905 0.292763 -3.43106 204 182 121 1752393037
-0.949981 0.312071 -3.44221 204 182 121 1752393037
-0.953078 0.331505 -3.45343 204 182 121 1752393037
-0.956195 0.351067 -3.46472 204 182 121 1752393037
-0.959332 0.370756 -3.47609 204 182 121 1752393037
-0.96249 0.390576 -3.48753 204 182 121 1752393037
-0.965669 0.410526 -3.49905 204 182 121 1752393037
-0.968869 0.430608 -3.51064 204 182 121 1752393037
-0.97209 0.450824 -3.52232 204 182 121 1752393037
-0.975333 0.471175 -3.53407 204 182 121 1752393037
-0.978597 0.491662 -3.54589 204 182 121 1752393037
-0.981883 0.512287 -3.5578 204 182 121 1752393037
-0.985192 0.533051 -3.56979 204 182 121 1752393037
-0.988522 0.553955 -3.58186 204 182 121 1752393037
-0.991876 0.575 -3.59401 204 182 121 1752393037
-0.995252 0.59619 -3.60624 204 182 121 1752393037
-0.998652 0.617524 -3.61856 204 182 121 1752393037
-1.00207 0.639004 -3.63096 204 182 121 1752393037
-1.00552 0.660632 -3.64345 204 182 121 1752393037
-1.00899 0.682409 -3.65602 204 182 121 1752393037
-1.01248 0.704337 -3.66868 204 182 121 1752393037
-1.016 0.726417 -3.68143 204 182 121 1752393037
-1.01954 0.748652 -3.69427 204 182 121 1752393037
-0.720767 -1.05995 -2.65007 204 182 121 1752393037
-0.722574 -1.04844 -2.65671 204 182 121 1752393037
-0.724391 -1.03687 -2.66339 204 182 121 1752393037
-0.726217 -1.02525 -2.6701 204 182 121 1752393037
-0.728051 -1.01356 -2.67685 204 182 121 1752393037
-0.729896 -1.00182 -2.68363 204 182 121 1752393037
-0.731749 -0.990014 -2.69045 204 182 121 1752393037
-0.733612 -0.97815 -2.6973 204 182 121 1752393037
-0.735485 -0.966225 -2.70418 204 182 121 1752393037
-0.737367 -0.954239 -2.7111 204 182 121 1752393037
-0.739259 -0.942192 -2.71806 204 182 121 1752393037
-0.74116 -0.930083 -2.72505 204 182 121 1752393037
-0.743071 -0.917912 -2.73207 204 182 121 1752393037
-0.744992 -0.905677 -2.73914 204 182 121 1752393037
-0.746924 -0.893379 -2.74624 204 182 121 1752393037
-0.748865 -0.881017 -2.75338 204 182 121 1752393037
-0.750816 -0.868591 -2.76055 204 182 121 1752393037
-0.752777 -0.8561 -2.76776 204 182 121 1752393037
-0.754749 -0.843543 -2.77501 204 182 121 1752393037
-0.756731 -0.830921 -2.7823 204 182 121 1752393037
-0.758724 -0.818232 -2.78962 204 182 121 1752393037
-0.760727 -0.805476 -2.79699 204 182 121 1752393037
-0.762741 -0.792652 -2.80439 204 182 121 1752393037
-0.764765 -0.77976 -2.81184 204 182 121 1752393037
-0.7668 -0.7668 -2.81932 204 182 121 1752393037
-0.768846 -0.753771 -2.82684 204 182 121 1752393037
-0.770903 -0.740672 -2.8344 204 182 121 1752393037
-0.772971 -0.727502 -2.84201 204 182 121 1752393037
-0.77505 -0.714262 -2.84965 204 182 121 1752393037
-0.77714 -0.70095 -2.85734 204 182 121 1752393037
-0.779242 -0.687566 -2.86507 204 182 121 1752393037
-0.781355 -0.67411 -2.87283 204 182 121 1752393037
-0.78348 -0.660581 -2.88065 204 182 121 1752393037
-0.785616 -0.646978 -2.8885 204 182 121 1752393037
-0.787763 -0.6333 -2.8964 204 182 121 1752393037
-0.789923 -0.619547 -2.90434 204 182 121 1752393037
-0.792094 -0.605719 -2.91232 204 182 121 1752393037
-0.794278 -0.591815 -2.92035 204 182 121 1752393037
-0.796473 -0.577834 -2.92842 204 182 121 1752393037
-0.798681 -0.563775 -2.93654 204 182 121 1752393037
-0.800901 -0.549638 -2.9447 204 182 121 1752393037
-0.803133 -0.535422 -2.95291 204 182 121 1752393037
-0.805378 -0.521127 -2.96116 204 182 121 1752393037
-0.807635 -0.506751 -2.96946 204 182 121 1752393037
-0.809905 -0.492295 -2.9778 204 182 121 1752393037
-0.812188 -0.477758 -2.9862 204 182 121 1752393037
-0.814484 -0.463138 -2.99464 204 182 121 1752393037
-0.816792 -0.448435 -3.00313 204 182 121 1752393037
-0.819114 -0.433649 -3.01166 204 182 121 1752393037
-0.821449 -0.418778 -3.02025 204 182 121 1752393037
-0.823798 -0.403823 -3.02888 204 182 121 1752393037
-0.82616 -0.388781 -3.03757 204 182 121 1752393037
-0.828535 -0.373653 -3.0463 204 182 121 1752393037
-0.830925 -0.358438 -3.05509 204 182 121 1752393037
-0.833328 -0.343135 -3.06392 204 182 121 1752393037
-0.835745 -0.327743 -3.07281 204 182 121 1752393037
-0.838176 -0.312262 -3.08175 204 182 121 1752393037
-0.840621 -0.29669 -3.09074 204 182 121 1752393037
-0.84308 -0.281027 -3.09978 204 182 121 1752393037
-0.845554 -0.265272 -3.10888 204 182 121 1752393037
-0.848043 -0.249424 -3.11803 204 182 121 1752393037
-0.850546 -0.233483 -3.12723 204 182 121 1752393037
-0.853064 -0.217448 -3.13649 204 182 121 1752393037
-0.855597 -0.201317 -3.1458 204 182 121 1752393037
-0.858145 -0.18509 -3.15517 204 182 121 1752393037
-0.860709 -0.168766 -3.16459 204 182 121 1752393037
-0.863287 -0.152345 -3.17408 204 182 121 1752393037
-0.865881 -0.135825 -3.18361 204 182 121 1752393037
-0.868491 -0.119205 -3.19321 204 182 121 1752393037
-0.871117 -0.102484 -3.20286 204 182 121 1752393037
-0.873758 -0.085663 -3.21257 204 182 121 1752393037
-0.876416 -0.068738 -3.22235 204 182 121 1752393037
-0.879089 -0.051711 -3.23218 204 182 121 1752393037
-0.88178 -0.03458 -3.24207 0 0 0 1752393037
-0.884486 -0.017343 -3.25202 204 182 121 1752393037
-0.88721 0 -3.26203 204 182 121 1752393037
-0.88995 0.01745 -3.27211 204 182 121 1752393037
-0.892707 0.035008 -3.28224 204 182 121 1752393037
-0.895481 0.052675 -3.29244 204 182 121 1752393037
-0.898273 0.070453 -3.30271 204 182 121 1752393037
-0.901082 0.088341 -3.31304 204 182 121 1752393037
-0.903908 0.106342 -3.32343 204 182 121 1752393037
-0.906753 0.124456 -3.33389 204 182 121 1752393037
-0.909615 0.142685 -3.34441 204 182 121 1752393037
-0.912495 0.161029 -3.355 204 182 121 1752393037
-0.915394 0.179489 -3.36566 204 182 121 1752393037
-0.918312 0.198067 -3.37639 204 182 121 1752393037
-0.921248 0.216764 -3.38718 204 182 121 1752393037
-0.924202 0.235581 -3.39805 204 182 121 1752393037
-0.927176 0.254519 -3.40898 204 182 121 1752393037
-0.930169 0.273579 -3.41998 204 182 121 1752393037
-0.933182 0.292763 -3.43106 204 182 121 1752393037
-0.936214 0.312071 -3.44221 204 182 121 1752393037
-0.939265 0.331505 -3.45343 204 182 121 1752393037
-0.942337 0.351067 -3.46472 204 182 121 1752393037
-0.945429 0.370756 -3.47609 204 182 121 1752393037
-0.948541 0.390576 -3.48753 204 182 121 1752393037
-0.951674 0.410526 -3.49905 204 182 121 1752393037
-0.954827 0.430608 -3.51064 204 182 121 1752393037
-0.958002 0.450824 -3.52232 204 182 121 1752393037
-0.961197 0.471175 -3.53407 204 182 121 1752393037
-0.964414 0.491662 -3.54589 204 182 121 1752393037
-0.967653 0.512287 -3.5578 204 182 121 1752393037
-0.970913 0.533051 -3.56979 204 182 121 1752393037
-0.974196 0.553955 -3.58186 204 182 121 1752393037
-0.977501 0.575 -3.59401 204 182 121 1752393037
-0.980828 0.59619 -3.60624 204 182 121 1752393037
-0.984178 0.617524 -3.61856 204 182 121 1752393037
-0.987551 0.639004 -3.63096 204 182 121 1752393037
-0.990947 0.660632 -3.64345 204 182 121 1752393037
-0.994367 0.682409 -3.65602 204 182 121 1752393037
-0.99781 0.704337 -3.66868 204 182 121 1752393037
-1.00128 0.726417 -3.68143 204 182 121 1752393037
-1.00477 0.748652 -3.69427 204 182 121 1752393037
-0.710167 -1.05995 -2.65007 204 182 121 1752393037
-0.711948 -1.04844 -2.65671 204 182 121 1752393037
-0.713738 -1.03687 -2.66339 204 182 121 1752393037
-0.715537 -1.02525 -2.6701 204 182 121 1752393037
-0.717345 -1.01356 -2.67685 204 182 121 1752393037
-0.719162 -1.00182 -2.68363 204 182 121 1752393037
-0.720988 -0.990014 -2.69045 204 182 121 1752393037
-0.722824 -0.97815 -2.6973 204 182 121 1752393037
-0.724669 -0.966225 -2.70418 204 182 121 1752393037
-0.726523 -0.954239 -2.7111 0 0 0 1752393037
-0.728387 -0.942192 -2.71806 204 182 121 1752393037
-0.730261 -0.930083 -2.72505 204 182 121 1752393037
-0.732144 -0.917912 -2.73207 204 182 121 1752393037
-0.734037 -0.905677 -2.73914 204 182 121 1752393037
-0.735939 -0.893379 -2.74624 204 182 121 1752393037
-0.737852 -0.881017 -2.75338 204 182 121 1752393037
-0.739775 -0.868591 -2.76055 0 0 0 1752393037
-0.741707 -0.8561 -2.76776 204 182 121 1752393037
-0.74365 -0.843543 -2.77501 204 182 121 1752393037
-0.745603 -0.830921 -2.7823 204 182 121 1752393037
-0.747566 -0.818232 -2.78962 204 182 121 1752393037
-0.74954 -0.805476 -2.79699 204 182 121 1752393037
-0.751524 -0.792652 -2.80439 204 182 121 1752393037
-0.753518 -0.77976 -2.81184 204 182 121 1752393037
-0.755524 -0.7668 -2.81932 204 182 121 1752393037
-0.757539 -0.753771 -2.82684 204 182 121 1752393037
-0.759566 -0.740671 -2.8344 204 182 121 1752393037
-0.761604 -0.727502 -2.84201 204 182 121 1752393037
-0.763652 -0.714262 -2.84965 204 182 121 1752393037
-0.765712 -0.70095 -2.85734 204 182 121 1752393037
-0.767783 -0.687567 -2.86507 204 182 121 1752393037
-0.769865 -0.67411 -2.87283 204 182 121 1752393037
-0.771958 -0.660581 -2.88065 204 182 121 1752393037
-0.774062 -0.646978 -2.8885 204 182 121 1752393037
-0.776179 -0.6333 -2.8964 204 182 121 1752393037
-0.778306 -0.619547 -2.90434 204 182 121 1752393037
-0.780446 -0.605719 -2.91232 204 182 121 1752393037
-0.782597 -0.591815 -2.92035 204 182 121 1752393037
-0.78476 -0.577834 -2.92842 204 182 121 1752393037
-0.786936 -0.563775 -2.93654 204 182 121 1752393037
-0.789123 -0.549638 -2.9447 204 182 121 1752393037
-0.791322 -0.535422 -2.9529 204 182 121 1752393037
-0.793534 -0.521127 -2.96116 204 182 121 1752393037
-0.795758 -0.506751 -2.96946 204 182 121 1752393037
-0.797995 -0.492295 -2.9778 204 182 121 1752393037
-0.800244 -0.477758 -2.9862 204 182 121 1752393037
-0.802506 -0.463138 -2.99464 204 182 121 1752393037
-0.804781 -0.448435 -3.00313 204 182 121 1752393037
-0.807068 -0.433649 -3.01166 204 182 121 1752393037
-0.809369 -0.418778 -3.02025 204 182 121 1752393037
-0.811683 -0.403822 -3.02888 204 182 121 1752393037
-0.81401 -0.388781 -3.03757 204 182 121 1752393037
-0.816351 -0.373653 -3.0463 204 182 121 1752393037
-0.818705 -0.358438 -3.05509 204 182 121 1752393037
-0.821073 -0.343135 -3.06392 204 182 121 1752393037
-0.823454 -0.327743 -3.07281 204 182 121 1752393037
-0.825849 -0.312262 -3.08175 204 182 121 1752393037
-0.828259 -0.29669 -3.09074 204 182 121 1752393037
-0.830682 -0.281027 -3.09978 204 182 121 1752393037
-0.83312 -0.265272 -3.10888 204 182 121 1752393037
-0.835572 -0.249424 -3.11803 204 182 121 1752393037
-0.838038 -0.233483 -3.12723 204 182 121 1752393037
-0.840519 -0.217448 -3.13649 204 182 121 1752393037
-0.843015 -0.201317 -3.1458 204 182 121 1752393037
-0.845525 -0.18509 -3.15517 204 182 121 1752393037
-0.848051 -0.168766 -3.16459 204 182 121 1752393037
-0.850592 -0.152345 -3.17408 204 182 121 1752393037
-0.853148 -0.135825 -3.18361 204 182 121 1752393037
-0.855719 -0.119205 -3.19321 204 182 121 1752393037
-0.858306 -0.102484 -3.20286 204 182 121 1752393037
-0.860909 -0.085663 -3.21257 204 182 121 1752393037
-0.863527 -0.068738 -3.22235 204 182 121 1752393037
-0.866162 -0.051711 -3.23218 204 182 121 1752393037
-0.868812 -0.03458 -3.24207 204 182 121 1752393037
-0.871479 -0.017343 -3.25202 204 182 121 1752393037
-0.874162 0 -3.26203 204 182 121 1752393037
-0.876862 0.01745 -3.27211 204 182 121 1752393037
-0.879579 0.035008 -3.28224 204 182 121 1752393037
-0.882312 0.052675 -3.29244 204 182 121 1752393037
-0.885063 0.070453 -3.30271 204 182 121 1752393037
-0.887831 0.088341 -3.31304 204 182 121 1752393037
-0.890616 0.106342 -3.32343 204 182 121 1752393037
-0.893418 0.124456 -3.33389 204 182 121 1752393037
-0.896238 0.142685 -3.34441 204 182 121 1752393037
-0.899076 0.161029 -3.355 204 182 121 1752393037
-0.901933 0.179489 -3.36566 204 182 121 1752393037
-0.904807 0.198067 -3.37639 204 182 121 1752393037
-0.9077 0.216764 -3.38718 204 182 121 1752393037
-0.910611 0.235581 -3.39805 204 182 121 1752393037
-0.913541 0.254519 -3.40898 204 182 121 1752393037
-0.91649 0.273579 -3.41998 204 182 121 1752393037
-0.919458 0.292763 -3.43106 204 182 121 1752393037
-0.922446 0.312071 -3.44221 204 182 121 1752393037
-0.925453 0.331505 -3.45343 204 182 121 1752393037
-0.928479 0.351067 -3.46472 204 182 121 1752393037
-0.931525 0.370756 -3.47609 204 182 121 1752393037
-0.934592 0.390576 -3.48753 204 182 121 1752393037
-0.937678 0.410526 -3.49905 204 182 121 1752393037
-0.940786 0.430608 -3.51064 204 182 121 1752393037
-0.943913 0.450824 -3.52232 204 182 121 1752393037
-0.947062 0.471175 -3.53407 204 182 121 1752393037
-0.950232 0.491662 -3.54589 204 182 121 1752393037
-0.953423 0.512287 -3.5578 204 182 121 1752393037
-0.956635 0.53305 -3.56979 204 182 121 1752393037
-0.95987 0.553955 -3.58186 204 182 121 1752393037
-0.963126 0.575001 -3.59401 204 182 121 1752393037
-0.966404 0.59619 -3.60624 204 182 121 1752393037
-0.969705 0.617524 -3.61856 204 182 121 1752393037
-0.973028 0.639004 -3.63096 204 182 121 1752393037
-0.976375 0.660632 -3.64345 204 182 121 1752393037
-0.979744 0.682409 -3.65602 204 182 121 1752393037
-0.983137 0.704337 -3.66868 204 182 121 1752393037
-0.986553 0.726417 -3.68143 204 182 121 1752393037
-0.989993 0.748652 -3.69427 204 182 121 1752393037
-0.699568 -1.05995 -2.65007 204 182 121 1752393037
-0.701322 -1.04844 -2.65671 204 182 121 1752393037
-0.703085 -1.03687 -2.66339 204 182 121 1752393037
-0.704857 -1.02525 -2.6701 204 182 121 1752393037
-0.706638 -1.01356 -2.67685 204 182 121 1752393037
-0.708428 -1.00182 -2.68363 204 182 121 1752393037
-0.710227 -0.990014 -2.69045 204 182 121 1752393037
-0.712035 -0.978149 -2.6973 204 182 121 1752393037
-0.713853 -0.966225 -2.70418 204 182 121 1752393037
-0.71568 -0.954239 -2.7111 204 182 121 1752393037
-0.717516 -0.942192 -2.71806 204 182 121 1752393037
-0.719361 -0.930083 -2.72505 204 182 121 1752393037
-0.721216 -0.917912 -2.73207 204 182 121 1752393037
-0.723081 -0.905677 -2.73914 204 182 121 1752393037
-0.724955 -0.893379 -2.74624 204 182 121 1752393037
-0.726839 -0.881017 -2.75338 204 182 121 1752393037
-0.728733 -0.868591 -2.76055 204 182 121 1752393037
-0.730637 -0.8561 -2.76776 204 182 121 1752393037
-0.732551 -0.843543 -2.77501 204 182 121 1752393037
-0.734474 -0.830921 -2.7823 204 182 121 1752393037
-0.736408 -0.818232 -2.78962 204 182 121 1752393037
-0.738353 -0.805476 -2.79699 204 182 121 1752393037
-0.740307 -0.792652 -2.80439 204 182 121 1752393037
-0.742272 -0.77976 -2.81184 204 182 121 1752393037
-0.744247 -0.7668 -2.81932 204 182 121 1752393037
-0.746233 -0.753771 -2.82684 204 182 121 1752393037
-0.748229 -0.740672 -2.8344 204 182 121 1752393037
-0.750237 -0.727502 -2.84201 204 182 121 1752393037
-0.752255 -0.714262 -2.84965 204 182 121 1752393037
-0.754283 -0.70095 -2.85734 204 182 121 1752393037
-0.756323 -0.687566 -2.86507 204 182 121 1752393037
-0.758374 -0.67411 -2.87283 204 182 121 1752393037
-0.760436 -0.660581 -2.88065 204 182 121 1752393037
-0.762509 -0.646978 -2.8885 204 182 121 1752393037
-0.764594 -0.6333 -2.8964 204 182 121 1752393037
-0.76669 -0.619547 -2.90434 204 182 121 1752393037
-0.768797 -0.605719 -2.91232 204 182 121 1752393037
-0.770917 -0.591815 -2.92035 204 182 121 1752393037
-0.773048 -0.577834 -2.92842 204 182 121 1752393037
-0.77519 -0.563775 -2.93654 204 182 121 1752393037
-0.777345 -0.549638 -2.9447 204 182 121 1752393037
-0.779512 -0.535422 -2.95291 204 182 121 1752393037
-0.78169 -0.521127 -2.96116 204 182 121 1752393037
-0.783881 -0.506751 -2.96946 204 182 121 1752393037
-0.786085 -0.492295 -2.9778 204 182 121 1752393037
-0.7883 -0.477758 -2.9862 204 182 121 1752393037
-0.790528 -0.463138 -2.99464 204 182 121 1752393037
-0.792769 -0.448435 -3.00313 204 182 121 1752393037
-0.795023 -0.433649 -3.01167 204 182 121 1752393037
-0.797289 -0.418778 -3.02025 204 182 121 1752393037
-0.799569 -0.403823 -3.02888 204 182 121 1752393037
-0.801861 -0.388781 -3.03757 204 182 121 1752393037
-0.804167 -0.373653 -3.0463 204 182 121 1752393037
-0.806486 -0.358438 -3.05509 204 182 121 1752393037
-0.808818 -0.343135 -3.06392 204 182 121 1752393037
-0.811164 -0.327743 -3.07281 204 182 121 1752393037
-0.813523 -0.312262 -3.08175 204 182 121 1752393037
-0.815897 -0.29669 -3.09074 0 0 0 1752393037
-0.818284 -0.281027 -3.09978 204 182 121 1752393037
-0.820685 -0.265272 -3.10888 204 182 121 1752393037
-0.823101 -0.249424 -3.11803 204 182 121 1752393037
-0.82553 -0.233483 -3.12723 204 182 121 1752393037
-0.827974 -0.217448 -3.13649 204 182 121 1752393037
-0.830432 -0.201317 -3.1458 204 182 121 1752393037
-0.832906 -0.18509 -3.15517 204 182 121 1752393037
-0.835394 -0.168766 -3.16459 204 182 121 1752393037
-0.837896 -0.152345 -3.17408 204 182 121 1752393037
-0.840414 -0.135825 -3.18361 204 182 121 1752393037
-0.842947 -0.119205 -3.19321 204 182 121 1752393037
-0.845495 -0.102484 -3.20286 204 182 121 1752393037
-0.848059 -0.085663 -3.21257 204 182 121 1752393037
-0.850639 -0.068738 -3.22235 204 182 121 1752393037
-0.853234 -0.051711 -3.23218 204 182 121 1752393037
-0.855845 -0.03458 -3.24207 204 182 121 1752393037
-0.858472 -0.017343 -3.25202 204 182 121 1752393037
-0.861115 0 -3.26203 204 182 121 1752393037
-0.863775 0.01745 -3.27211 204 182 121 1752393037
-0.866451 0.035008 -3.28224 204 182 121 1752393037
-0.869143 0.052675 -3.29244 204 182 121 1752393037
-0.871853 0.070453 -3.30271 204 182 121 1752393037
-0.874579 0.088341 -3.31304 204 182 121 1752393037
-0.877323 0.106342 -3.32343 204 182 121 1752393037
-0.880084 0.124456 -3.33389 204 182 121 1752393037
-0.882862 0.142685 -3.34441 204 182 121 1752393037
-0.885657 0.161029 -3.355 204 182 121 1752393037
-0.888471 0.179489 -3.36566 204 182 121 1752393037
-0.891303 0.198067 -3.37639 204 182 121 1752393037
-0.894152 0.216764 -3.38718 204 182 121 1752393037
-0.89702 0.235581 -3.39805 204 182 121 1752393037
-0.899906 0.254519 -3.40898 204 182 121 1752393037
-0.902811 0.273579 -3.41998 204 182 121 1752393037
-0.905735 0.292763 -3.43106 204 182 121 1752393037
-0.908678 0.312071 -3.44221 204 182 121 1752393037
-0.91164 0.331505 -3.45343 204 182 121 1752393037
-0.914621 0.351067 -3.46472 204 182 121 1752393037
-0.917622 0.370756 -3.47609 204 182 121 1752393037
-0.920643 0.390576 -3.48753 204 182 121 1752393037
-0.923683 0.410526 -3.49905 204 182 121 1752393037
-0.926744 0.430608 -3.51064 204 182 121 1752393037
-0.929825 0.450824 -3.52232 204 182 121 1752393037
-0.932927 0.471175 -3.53407 204 182 121 1752393037
-0.936049 0.491662 -3.54589 204 182 121 1752393037
-0.939193 0.512287 -3.5578 204 182 121 1752393037
-0.942357 0.533051 -3.56979 204 182 121 1752393037
-0.945543 0.553955 -3.58186 204 182 121 1752393037
-0.948751 0.575001 -3.59401 204 182 121 1752393037
-0.95198 0.59619 -3.60624 204 182 121 1752393037
-0.955232 0.617524 -3.61856 204 182 121 1752393037
-0.958506 0.639004 -3.63096 204 182 121 1752393037
-0.961802 0.660632 -3.64345 204 182 121 1752393037
-0.965121 0.682409 -3.65602 204 182 121 1752393037
-0.968463 0.704337 -3.66868 204 182 121 1752393037
-0.971828 0.726417 -3.68143 204 182 121 1752393037
-0.975217 0.748652 -3.69427 204 182 121 1752393037
-0.688968 -1.05995 -2.65007 204 182 121 1752393037
-0.690696 -1.04844 -2.65671 204 182 121 1752393037
-0.692432 -1.03687 -2.66339 204 182 121 1752393037
-0.694178 -1.02525 -2.6701 204 182 121 1752393037
-0.695931 -1.01356 -2.67685 204 182 121 1752393037
-0.697694 -1.00182 -2.68363 204 182 121 1752393037
-0.699466 -0.990014 -2.69045 204 182 121 1752393037
-0.701247 -0.97815 -2.6973 204 182 121 1752393037
-0.703037 -0.966225 -2.70418 204 182 121 1752393037
-0.704836 -0.954239 -2.7111 204 182 121 1752393037
-0.706644 -0.942192 -2.71806 204 182 121 1752393037
-0.708462 -0.930083 -2.72505 204 182 121 1752393037
-0.710289 -0.917912 -2.73207 204 182 121 1752393037
-0.712125 -0.905677 -2.73914 204 182 121 1752393037
-0.713971 -0.893379 -2.74624 204 182 121 1752393037
-0.715827 -0.881017 -2.75338 204 182 121 1752393037
-0.717692 -0.868591 -2.76055 204 182 121 1752393037
-0.719567 -0.8561 -2.76776 204 182 121 1752393037
-0.721452 -0.843543 -2.77501 204 182 121 1752393037
-0.723346 -0.830921 -2.7823 204 182 121 1752393037
-0.725251 -0.818232 -2.78962 204 182 121 1752393037
-0.727165 -0.805476 -2.79699 204 182 121 1752393037
-0.72909 -0.792652 -2.80439 204 182 121 1752393037
-0.731025 -0.77976 -2.81184 204 182 121 1752393037
-0.732971 -0.7668 -2.81932 204 182 121 1752393037
-0.734926 -0.753771 -2.82684 204 182 121 1752393037
-0.736893 -0.740672 -2.8344 204 182 121 1752393037
-0.738869 -0.727502 -2.84201 204 182 121 1752393037
-0.740857 -0.714262 -2.84965 204 182 121 1752393037
-0.742855 -0.70095 -2.85734 204 182 121 1752393037
-0.744864 -0.687566 -2.86507 204 182 121 1752393037
-0.746883 -0.67411 -2.87283 204 182 121 1752393037
-0.748914 -0.660581 -2.88065 204 182 121 1752393037
-0.750956 -0.646978 -2.8885 204 182 121 1752393037
-0.753009 -0.6333 -2.89639 204 182 121 1752393037
-0.755073 -0.619547 -2.90434 204 182 121 1752393037
-0.757149 -0.605719 -2.91232 204 182 121 1752393037
-0.759236 -0.591815 -2.92035 204 182 121 1752393037
-0.761335 -0.577833 -2.92842 204 182 121 1752393037
-0.763445 -0.563775 -2.93654 204 182 121 1752393037
-0.765567 -0.549638 -2.9447 204 182 121 1752393037
-0.767701 -0.535422 -2.95291 204 182 121 1752393037
-0.769846 -0.521127 -2.96116 204 182 121 1752393037
-0.772004 -0.506751 -2.96946 204 182 121 1752393037
-0.774174 -0.492295 -2.9778 204 182 121 1752393037
-0.776356 -0.477758 -2.9862 204 182 121 1752393037
-0.778551 -0.463138 -2.99464 204 182 121 1752393037
-0.780757 -0.448435 -3.00313 204 182 121 1752393037
-0.782977 -0.433649 -3.01167 204 182 121 1752393037
-0.785209 -0.418778 -3.02025 204 182 121 1752393037
-0.787454 -0.403823 -3.02888 204 182 121 1752393037
-0.789712 -0.388781 -3.03757 204 182 121 1752393037
-0.791982 -0.373653 -3.0463 204 182 121 1752393037
-0.794266 -0.358438 -3.05509 204 182 121 1752393037
-0.796563 -0.343135 -3.06392 204 182 121 1752393037
-0.798873 -0.327743 -3.07281 204 182 121 1752393037
-0.801197 -0.312262 -3.08175 204 182 121 1752393037
-0.803535 -0.29669 -3.09074 204 182 121 1752393037
-0.805886 -0.281027 -3.09978 204 182 121 1752393037
-0.80825 -0.265272 -3.10888 204 182 121 1752393037
-0.810629 -0.249424 -3.11803 204 182 121 1752393037
-0.813022 -0.233483 -3.12723 204 182 121 1752393037
-0.815429 -0.217448 -3.13649 204 182 121 1752393037
-0.81785 -0.201317 -3.1458 204 182 121 1752393037
-0.820286 -0.18509 -3.15517 204 182 121 1752393037
-0.822736 -0.168766 -3.16459 204 182 121 1752393037
-0.825201 -0.152345 -3.17408 204 182 121 1752393037
-0.827681 -0.135825 -3.18361 204 182 121 1752393037
-0.830175 -0.119205 -3.19321 204 182 121 1752393037
-0.832685 -0.102484 -3.20286 204 182 121 1752393037
-0.83521 -0.085663 -3.21257 204 182 121 1752393037
-0.83775 -0.068738 -3.22235 204 182 121 1752393037
-0.840306 -0.051711 -3.23218 204 182 121 1752393037
-0.842877 -0.03458 -3.24207 204 182 121 1752393037
-0.845465 -0.017343 -3.25202 204 182 121 1752393037
-0.848068 0 -3.26203 204 182 121 1752393037
-0.850687 0.01745 -3.27211 204 182 121 1752393037
-0.853323 0.035008 -3.28224 204 182 121 1752393037
-0.855975 0.052675 -3.29244 204 182 121 1752393037
-0.858643 0.070453 -3.30271 204 182 121 1752393037
-0.861328 0.088341 -3.31304 204 182 121 1752393037
-0.86403 0.106342 -3.32343 204 182 121 1752393037
-0.866749 0.124456 -3.33389 204 182 121 1752393037
-0.869485 0.142685 -3.34441 204 182 121 1752393037
-0.872238 0.161029 -3.355 204 182 121 1752393037
-0.875009 0.179489 -3.36566 204 182 121 1752393037
-0.877798 0.198067 -3.37639 204 182 121 1752393037
-0.880604 0.216764 -3.38718 204 182 121 1752393037
-0.883429 0.235581 -3.39805 204 182 121 1752393037
-0.886271 0.254519 -3.40898 204 182 121 1752393037
-0.889132 0.273579 -3.41998 204 182 121 1752393037
-0.892012 0.292763 -3.43106 204 182 121 1752393037
-0.89491 0.312071 -3.44221 204 182 121 1752393037
-0.897827 0.331505 -3.45343 204 182 121 1752393037
-0.900763 0.351067 -3.46472 204 182 121 1752393037
-0.903719 0.370756 -3.47609 204 182 121 1752393037
-0.906694 0.390576 -3.48753 204 182 121 1752393037
-0.909688 0.410526 -3.49905 204 182 121 1752393037
-0.912703 0.430608 -3.51064 204 182 121 1752393037
-0.915737 0.450824 -3.52232 204 182 121 1752393037
-0.918792 0.471175 -3.53407 204 182 121 1752393037
-0.921867 0.491662 -3.54589 204 182 121 1752393037
-0.924962 0.512287 -3.5578 204 182 121 1752393037
-0.928079 0.533051 -3.56979 204 182 121 1752393037
-0.931217 0.553955 -3.58186 204 182 121 1752393037
-0.934376 0.575001 -3.59401 204 182 121 1752393037
-0.937556 0.59619 -3.60624 204 182 121 1752393037
-0.940759 0.617524 -3.61856 204 182 121 1752393037
-0.943983 0.639004 -3.63096 204 182 121 1752393037
-0.947229 0.660632 -3.64345 204 182 121 1752393037
-0.950498 0.682409 -3.65602 204 182 121 1752393037
-0.953789 0.704337 -3.66868 204 182 121 1752393037
-0.957104 0.726417 -3.68143 204 182 121 1752393037
-0.960441 0.748652 -3.69427 204 182 121 1752393037
-0.678369 -1.05995 -2.65007 204 182 121 1752393037
-0.68007 -1.04844 -2.65671 204 182 121 1752393037
-0.68178 -1.03687 -2.66339 204 182 121 1752393037
-0.683498 -1.02525 -2.6701 204 182 121 1752393037
-0.685225 -1.01356 -2.67685 204 182 121 1752393037
-0.686961 -1.00182 -2.68363 204 182 121 1752393037
-0.688705 -0.990014 -2.69045 204 182 121 1752393037
-0.690458 -0.97815 -2.6973 204 182 121 1752393037
-0.692221 -0.966225 -2.70418 204 182 121 1752393037
-0.693992 -0.954239 -2.7111 204 182 121 1752393037
-0.695773 -0.942192 -2.71806 204 182 121 1752393037
-0.697562 -0.930083 -2.72505 204 182 121 1752393037
-0.699361 -0.917912 -2.73207 204 182 121 1752393037
-0.701169 -0.905677 -2.73914 204 182 121 1752393037
-0.702987 -0.893379 -2.74624 204 182 121 1752393037
-0.704814 -0.881017 -2.75338 204 182 121 1752393037
-0.70665 -0.868591 -2.76055 204 182 121 1752393037
-0.708496 -0.8561 -2.76776 204 182 121 1752393037
-0.710352 -0.843543 -2.77501 204 182 121 1752393037
-0.712218 -0.830921 -2.7823 204 182 121 1752393037
-0.714093 -0.818232 -2.78962 204 182 121 1752393037
-0.715978 -0.805476 -2.79699 204 182 121 1752393037
-0.717874 -0.792652 -2.80439 204 182 121 1752393037
-0.719779 -0.77976 -2.81184 204 182 121 1752393037
-0.721694 -0.7668 -2.81932 204 182 121 1752393037
-0.72362 -0.753771 -2.82684 204 182 121 1752393037
-0.725556 -0.740672 -2.8344 204 182 121 1752393037
-0.727502 -0.727502 -2.84201 204 182 121 1752393037
-0.729459 -0.714262 -2.84965 204 182 121 1752393037
-0.731426 -0.70095 -2.85734 204 182 121 1752393037
-0.733404 -0.687566 -2.86507 204 182 121 1752393037
-0.735393 -0.67411 -2.87283 204 182 121 1752393037
-0.737393 -0.660581 -2.88065 204 182 121 1752393037
-0.739403 -0.646978 -2.8885 204 182 121 1752393037
-0.741424 -0.6333 -2.89639 204 182 121 1752393037
-0.743457 -0.619547 -2.90434 204 182 121 1752393037
-0.745501 -0.605719 -2.91232 204 182 121 1752393037
-0.747556 -0.591815 -2.92035 204 182 121 1752393037
-0.749622 -0.577834 -2.92842 0 0 0 1752393037
-0.7517 -0.563775 -2.93654 204 182 121 1752393037
-0.753789 -0.549638 -2.9447 204 182 121 1752393037
-0.75589 -0.535422 -2.9529 204 182 121 1752393037
-0.758003 -0.521127 -2.96116 204 182 121 1752393037
-0.760127 -0.506751 -2.96946 204 182 121 1752393037
-0.762264 -0.492295 -2.9778 204 182 121 1752393037
-0.764412 -0.477758 -2.9862 204 182 121 1752393037
-0.766573 -0.463138 -2.99464 204 182 121 1752393037
-0.768746 -0.448435 -3.00313 204 182 121 1752393037
-0.770931 -0.433649 -3.01166 204 182 121 1752393037
-0.773129 -0.418778 -3.02025 204 182 121 1752393037
-0.775339 -0.403823 -3.02888 204 182 121 1752393037
-0.777562 -0.388781 -3.03757 204 182 121 1752393037
-0.779798 -0.373653 -3.0463 204 182 121 1752393037
-0.782047 -0.358438 -3.05509 204 182 121 1752393037
-0.784308 -0.343135 -3.06392 204 182 121 1752393037
-0.786583 -0.327743 -3.07281 204 182 121 1752393037
-0.788871 -0.312262 -3.08175 204 182 121 1752393037
-0.791173 -0.29669 -3.09074 204 182 121 1752393037
-0.793487 -0.281027 -3.09978 0 0 0 1752393037
-0.795816 -0.265272 -3.10888 204 182 121 1752393037
-0.798158 -0.249424 -3.11803 204 182 121 1752393037
-0.800514 -0.233483 -3.12723 204 182 121 1752393037
-0.802884 -0.217448 -3.13649 204 182 121 1752393037
-0.805268 -0.201317 -3.1458 204 182 121 1752393037
-0.807666 -0.18509 -3.15517 204 182 121 1752393037
-0.810078 -0.168766 -3.16459 204 182 121 1752393037
-0.812505 -0.152345 -3.17408 204 182 121 1752393037
-0.814947 -0.135824 -3.18361 204 182 121 1752393037
-0.817403 -0.119205 -3.19321 204 182 121 1752393037
-0.819874 -0.102484 -3.20286 204 182 121 1752393037
-0.82236 -0.085663 -3.21257 204 182 121 1752393037
-0.824862 -0.068738 -3.22235 204 182 121 1752393037
-0.827378 -0.051711 -3.23218 0 0 0 1752393037
-0.82991 -0.03458 -3.24207 204 182 121 1752393037
-0.832457 -0.017343 -3.25202 204 182 121 1752393037
-0.835021 0 -3.26203 204 182 121 1752393037
-0.8376 0.01745 -3.27211 204 182 121 1752393037
-0.840195 0.035008 -3.28224 204 182 121 1752393037
-0.842806 0.052675 -3.29244 204 182 121 1752393037
-0.845433 0.070453 -3.30271 204 182 121 1752393037
-0.848077 0.088341 -3.31304 204 182 121 1752393037
-0.850737 0.106342 -3.32343 204 182 121 1752393037
-0.853414 0.124456 -3.33389 204 182 121 1752393037
-0.856108 0.142685 -3.34441 204 182 121 1752393037
-0.858819 0.161029 -3.355 204 182 121 1752393037
-0.861548 0.179489 -3.36566 204 182 121 1752393037
-0.864293 0.198067 -3.37639 204 182 121 1752393037
-0.867056 0.216764 -3.38718 204 182 121 1752393037
-0.869838 0.235581 -3.39805 204 182 121 1752393037
-0.872636 0.254519 -3.40898 204 182 121 1752393037
-0.875453 0.273579 -3.41998 204 182 121 1752393037
-0.878289 0.292763 -3.43106 204 182 121 1752393037
-0.881142 0.312071 -3.44221 204 182 121 1752393037
-0.884014 0.331505 -3.45343 204 182 121 1752393037
-0.886905 0.351067 -3.46472 204 182 121 1752393037
-0.889815 0.370756 -3.47609 204 182 121 1752393037
-0.892744 0.390576 -3.48753 204 182 121 1752393037
-0.895693 0.410526 -3.49905 204 182 121 1752393037
-0.898661 0.430608 -3.51064 204 182 121 1752393037
-0.901649 0.450824 -3.52232 204 182 121 1752393037
-0.904656 0.471175 -3.53407 204 182 121 1752393037
-0.907684 0.491662 -3.54589 204 182 121 1752393037
-0.910732 0.512287 -3.5578 204 182 121 1752393037
-0.913801 0.533051 -3.56979 204 182 121 1752393037
-0.91689 0.553955 -3.58186 204 182 121 1752393037
-0.920001 0.575 -3.59401 204 182 121 1752393037
-0.923132 0.59619 -3.60624 204 182 121 1752393037
-0.926285 0.617524 -3.61856 204 182 121 1752393037
-0.92946 0.639004 -3.63096 204 182 121 1752393037
-0.932656 0.660632 -3.64345 204 182 121 1752393037
-0.935875 0.682409 -3.65602 204 182 121 1752393037
-0.939116 0.704337 -3.66868 204 182 121 1752393037
-0.942379 0.726417 -3.68143 204 182 121 1752393037
-0.945665 0.748652 -3.69427 204 182 121 1752393037
-0.667769 -1.05995 -2.65007 204 182 121 1752393037
-0.669444 -1.04844 -2.65671 204 182 121 1752393037
-0.671127 -1.03687 -2.66339 204 182 121 1752393037
-0.672818 -1.02525 -2.6701 204 182 121 1752393037
-0.674518 -1.01356 -2.67685 204 182 121 1752393037
-0.676227 -1.00182 -2.68363 204 182 121 1752393037
-0.677944 -0.990014 -2.69045 204 182 121 1752393037
-0.67967 -0.978149 -2.6973 204 182 121 1752393037
-0.681405 -0.966225 -2.70418 204 182 121 1752393037
-0.683149 -0.954239 -2.7111 204 182 121 1752393037
-0.684901 -0.942192 -2.71806 204 182 121 1752393037
-0.686663 -0.930083 -2.72505 204 182 121 1752393037
-0.688434 -0.917912 -2.73207 204 182 121 1752393037
-0.690214 -0.905677 -2.73914 204 182 121 1752393037
-0.692003 -0.893379 -2.74624 204 182 121 1752393037
-0.693801 -0.881017 -2.75338 204 182 121 1752393037
-0.695609 -0.868591 -2.76055 204 182 121 1752393037
-0.697426 -0.8561 -2.76776 204 182 121 1752393037
-0.699253 -0.843543 -2.77501 204 182 121 1752393037
-0.701089 -0.830921 -2.7823 204 182 121 1752393037
-0.702935 -0.818232 -2.78962 204 182 121 1752393037
-0.704791 -0.805476 -2.79699 204 182 121 1752393037
-0.706657 -0.792652 -2.80439 204 182 121 1752393037
