ply
format ascii 1.0
comment PCL generated
obj_info is_cyberware_data 0
obj_info is_mesh 0
obj_info is_warped 0
obj_info is_interlaced 0
obj_info num_cols 19600
obj_info num_rows 1
obj_info echo_rgb_offset_x 0
obj_info echo_rgb_offset_y 0
obj_info echo_rgb_offset_z 0
obj_info echo_rgb_frontfocus 0.0
obj_info echo_rgb_backfocus 0.0
obj_info echo_rgb_pixelsize 0.0
obj_info echo_rgb_centerpixel 0
obj_info echo_frames 1
obj_info echo_lgincr 0.0
element vertex 925
property float x
property float y
property float z
property uchar red
property uchar green
property uchar blue
property uint label
end_header
-0.428278 0.483185 -4.11835 204 182 121 1752393037
-0.311888 -1.24755 -3.11911 204 182 121 1752393037
-0.31267 -1.23401 -3.12693 204 182 121 1752393037
-0.313456 -1.22039 -3.13479 204 182 121 1752393037
-0.314246 -1.20671 -3.14269 204 182 121 1752393037
-0.31504 -1.19295 -3.15063 204 182 121 1752393037
-0.315838 -1.17913 -3.15861 204 182 121 1752393037
-0.31664 -1.16524 -3.16663 204 182 121 1752393037
-0.317447 -1.15127 -3.17469 204 182 121 1752393037
-0.318257 -1.13724 -3.1828 204 182 121 1752393037
-0.319071 -1.12313 -3.19094 204 182 121 1752393037
-0.31989 -1.10895 -3.19913 204 182 121 1752393037
-0.320713 -1.0947 -3.20736 204 182 121 1752393037
-0.32154 -1.08037 -3.21563 204 182 121 1752393037
-0.322371 -1.06597 -3.22394 204 182 121 1752393037
-0.323207 -1.0515 -3.2323 204 182 121 1752393037
-0.324047 -1.03695 -3.2407 204 182 121 1752393037
-0.324891 -1.02232 -3.24914 204 182 121 1752393037
-0.32574 -1.00762 -3.25763 204 182 121 1752393037
-0.326593 -0.992843 -3.26616 204 182 121 1752393037
-0.327451 -0.977986 -3.27474 204 182 121 1752393037
-0.328313 -0.963051 -3.28336 204 182 121 1752393037
-0.32918 -0.948037 -3.29203 204 182 121 1752393037
-0.330051 -0.932944 -3.30075 204 182 121 1752393037
-0.330927 -0.917771 -3.30951 204 182 121 1752393037
-0.331808 -0.902517 -3.31831 204 182 121 1752393037
-0.332693 -0.887181 -3.32717 204 182 121 1752393037
-0.333583 -0.871764 -3.33607 204 182 121 1752393037
-0.334478 -0.856263 -3.34502 204 182 121 1752393037
-0.335378 -0.84068 -3.35402 204 182 121 1752393037
-0.336282 -0.825012 -3.36306 204 182 121 1752393037
-0.337191 -0.809259 -3.37215 204 182 121 1752393037
-0.338106 -0.793422 -3.3813 204 182 121 1752393037
-0.339025 -0.777498 -3.39049 204 182 121 1752393037
-0.339949 -0.761487 -3.39974 204 182 121 1752393037
-0.340879 -0.745388 -3.40903 204 182 121 1752393037
-0.341813 -0.729202 -3.41838 204 182 121 1752393037
-0.342753 -0.712926 -3.42777 204 182 121 1752393037
-0.343698 -0.696561 -3.43722 204 182 121 1752393037
-0.344648 -0.680105 -3.44672 204 182 121 1752393037
-0.345603 -0.663558 -3.45628 204 182 121 1752393037
-0.346564 -0.646919 -3.46588 204 182 121 1752393037
-0.347529 -0.630187 -3.47554 204 182 121 1752393037
-0.348501 -0.613361 -3.48526 204 182 121 1752393037
-0.349478 -0.596442 -3.49503 204 182 121 1752393037
-0.35046 -0.579427 -3.50485 204 182 121 1752393037
-0.351448 -0.562316 -3.51473 204 182 121 1752393037
-0.352441 -0.545109 -3.52466 204 182 121 1752393037
-0.35344 -0.527804 -3.53465 204 182 121 1752393037
-0.354445 -0.510401 -3.5447 204 182 121 1752393037
-0.355455 -0.492898 -3.55481 204 182 121 1752393037
-0.356472 -0.475295 -3.56497 204 182 121 1752393037
-0.357494 -0.457592 -3.57519 204 182 121 1752393037
-0.358521 -0.439786 -3.58547 204 182 121 1752393037
-0.359555 -0.421878 -3.59581 204 182 121 1752393037
-0.360595 -0.403867 -3.60621 204 182 121 1752393037
-0.361641 -0.38575 -3.61667 204 182 121 1752393037
-0.362693 -0.367529 -3.62719 204 182 121 1752393037
-0.363751 -0.349201 -3.63777 204 182 121 1752393037
-0.364815 -0.330766 -3.64841 204 182 121 1752393037
-0.365886 -0.312223 -3.65912 204 182 121 1752393037
-0.366963 -0.29357 -3.66989 204 182 121 1752393037
-0.368046 -0.274808 -3.68072 204 182 121 1752393037
-0.369135 -0.255934 -3.69162 204 182 121 1752393037
-0.370232 -0.236948 -3.70258 204 182 121 1752393037
-0.371334 -0.217849 -3.71361 204 182 121 1752393037
-0.372443 -0.198636 -3.7247 204 182 121 1752393037
-0.373559 -0.179308 -3.73586 204 182 121 1752393037
-0.374682 -0.159864 -3.74708 204 182 121 1752393037
-0.375811 -0.140303 -3.75838 204 182 121 1752393037
-0.376947 -0.120623 -3.76974 204 182 121 1752393037
-0.37809 -0.100824 -3.78117 204 182 121 1752393037
-0.37924 -0.080905 -3.79267 204 182 121 1752393037
-0.380397 -0.060864 -3.80424 204 182 121 1752393037
-0.381561 -0.0407 -3.81588 204 182 121 1752393037
-0.382732 -0.020412 -3.8276 204 182 121 1752393037
-0.383911 0 -3.83938 204 182 121 1752393037
-0.385097 0.020538 -3.85124 204 182 121 1752393037
-0.38629 0.041204 -3.86317 204 182 121 1752393037
-0.38749 0.061998 -3.87518 204 182 121 1752393037
-0.388698 0.082922 -3.88726 204 182 121 1752393037
-0.389913 0.103977 -3.89941 204 182 121 1752393037
-0.391137 0.125164 -3.91164 204 182 121 1752393037
-0.392367 0.146484 -3.92395 204 182 121 1752393037
-0.393606 0.167939 -3.93634 204 182 121 1752393037
-0.394853 0.189529 -3.94881 204 182 121 1752393037
-0.396107 0.211257 -3.96135 204 182 121 1752393037
-0.397369 0.233123 -3.97398 204 182 121 1752393037
-0.39864 0.255129 -3.98668 204 182 121 1752393037
-0.399918 0.277277 -3.99947 204 182 121 1752393037
-0.401205 0.299566 -4.01234 204 182 121 1752393037
-0.4025 0.322 -4.02529 204 182 121 1752393037
-0.403804 0.344579 -4.03832 204 182 121 1752393037
-0.405116 0.367305 -4.05145 204 182 121 1752393037
-0.406436 0.390179 -4.06465 204 182 121 1752393037
-0.407765 0.413202 -4.07795 204 182 121 1752393037
-0.409103 0.436377 -4.09132 204 182 121 1752393037
-0.41045 0.459704 -4.10479 204 182 121 1752393037
-0.411806 0.483185 -4.11835 204 182 121 1752393037
-0.299413 -1.24755 -3.11911 204 182 121 1752393037
-0.300164 -1.23401 -3.12693 204 182 121 1752393037
-0.300918 -1.22039 -3.13479 204 182 121 1752393037
-0.301677 -1.20671 -3.14269 204 182 121 1752393037
-0.302439 -1.19295 -3.15063 204 182 121 1752393037
-0.303205 -1.17913 -3.15861 204 182 121 1752393037
-0.303975 -1.16524 -3.16663 204 182 121 1752393037
-0.304749 -1.15127 -3.17469 204 182 121 1752393037
-0.305527 -1.13724 -3.1828 204 182 121 1752393037
-0.306308 -1.12313 -3.19094 204 182 121 1752393037
-0.307094 -1.10895 -3.19913 204 182 121 1752393037
-0.307884 -1.0947 -3.20736 204 182 121 1752393037
-0.308678 -1.08037 -3.21563 204 182 121 1752393037
-0.309476 -1.06597 -3.22394 204 182 121 1752393037
-0.310278 -1.0515 -3.2323 204 182 121 1752393037
-0.311085 -1.03695 -3.2407 204 182 121 1752393037
-0.311895 -1.02232 -3.24914 204 182 121 1752393037
-0.31271 -1.00762 -3.25763 204 182 121 1752393037
-0.313529 -0.992843 -3.26616 204 182 121 1752393037
-0.314353 -0.977986 -3.27474 204 182 121 1752393037
-0.31518 -0.963051 -3.28336 204 182 121 1752393037
-0.316012 -0.948037 -3.29203 204 182 121 1752393037
-0.316849 -0.932944 -3.30075 204 182 121 1752393037
-0.31769 -0.917771 -3.3095 204 182 121 1752393037
-0.318535 -0.902517 -3.31831 204 182 121 1752393037
-0.319385 -0.887181 -3.32717 204 182 121 1752393037
-0.32024 -0.871763 -3.33607 204 182 121 1752393037
-0.321099 -0.856263 -3.34502 204 182 121 1752393037
-0.321962 -0.84068 -3.35401 204 182 121 1752393037
-0.322831 -0.825012 -3.36306 204 182 121 1752393037
-0.323704 -0.80926 -3.37215 204 182 121 1752393037
-0.324582 -0.793422 -3.3813 204 182 121 1752393037
-0.325464 -0.777498 -3.39049 204 182 121 1752393037
-0.326351 -0.761487 -3.39974 204 182 121 1752393037
-0.327244 -0.745388 -3.40903 204 182 121 1752393037
-0.328141 -0.729202 -3.41838 204 182 121 1752393037
-0.329043 -0.712926 -3.42777 204 182 121 1752393037
-0.32995 -0.696561 -3.43722 204 182 121 1752393037
-0.330862 -0.680105 -3.44672 204 182 121 1752393037
-0.331779 -0.663558 -3.45628 204 182 121 1752393037
-0.332701 -0.646919 -3.46588 204 182 121 1752393037
-0.333628 -0.630187 -3.47554 204 182 121 1752393037
-0.334561 -0.613362 -3.48526 204 182 121 1752393037
-0.335499 -0.596442 -3.49502 204 182 121 1752393037
-0.336442 -0.579427 -3.50485 204 182 121 1752393037
-0.33739 -0.562316 -3.51473 204 182 121 1752393037
-0.338343 -0.545109 -3.52466 204 182 121 1752393037
-0.339303 -0.527804 -3.53465 204 182 121 1752393037
-0.340267 -0.510401 -3.5447 204 182 121 1752393037
-0.341237 -0.492898 -3.55481 204 182 121 1752393037
-0.342213 -0.475295 -3.56497 204 182 121 1752393037
-0.343194 -0.457592 -3.57519 204 182 121 1752393037
-0.344181 -0.439786 -3.58547 204 182 121 1752393037
-0.345173 -0.421878 -3.59581 204 182 121 1752393037
-0.346171 -0.403867 -3.60621 204 182 121 1752393037
-0.347175 -0.38575 -3.61667 204 182 121 1752393037
-0.348185 -0.367529 -3.62719 204 182 121 1752393037
-0.349201 -0.349201 -3.63777 204 182 121 1752393037
-0.350223 -0.330766 -3.64841 204 182 121 1752393037
-0.35125 -0.312223 -3.65912 204 182 121 1752393037
-0.352284 -0.29357 -3.66989 204 182 121 1752393037
-0.353324 -0.274808 -3.68072 204 182 121 1752393037
-0.35437 -0.255934 -3.69162 204 182 121 1752393037
-0.355422 -0.236948 -3.70258 204 182 121 1752393037
-0.356481 -0.217849 -3.71361 204 182 121 1752393037
-0.357546 -0.198636 -3.7247 204 182 121 1752393037
-0.358617 -0.179308 -3.73586 204 182 121 1752393037
-0.359694 -0.159864 -3.74708 204 182 121 1752393037
-0.360779 -0.140303 -3.75838 204 182 121 1752393037
-0.361869 -0.120623 -3.76974 204 182 121 1752393037
-0.362967 -0.100824 -3.78117 204 182 121 1752393037
-0.364071 -0.080905 -3.79267 204 182 121 1752393037
-0.365181 -0.060864 -3.80424 204 182 121 1752393037
-0.366299 -0.0407 -3.81588 204 182 121 1752393037
-0.367423 -0.020412 -3.8276 204 182 121 1752393037
-0.368554 0 -3.83938 204 182 121 1752393037
-0.369693 0.020538 -3.85124 204 182 121 1752393037
-0.370838 0.041204 -3.86317 204 182 121 1752393037
-0.37199 0.061998 -3.87518 204 182 121 1752393037
-0.37315 0.082922 -3.88726 204 182 121 1752393037
-0.374317 0.103977 -3.89941 204 182 121 1752393037
-0.375491 0.125164 -3.91165 204 182 121 1752393037
-0.376673 0.146484 -3.92395 204 182 121 1752393037
-0.377862 0.167939 -3.93634 204 182 121 1752393037
-0.379058 0.189529 -3.94881 204 182 121 1752393037
-0.380263 0.211257 -3.96135 204 182 121 1752393037
-0.381474 0.233123 -3.97398 204 182 121 1752393037
-0.382694 0.255129 -3.98668 204 182 121 1752393037
-0.383922 0.277277 -3.99947 204 182 121 1752393037
-0.385157 0.299566 -4.01234 204 182 121 1752393037
-0.3864 0.322 -4.02529 204 182 121 1752393037
-0.387652 0.344579 -4.03832 204 182 121 1752393037
-0.388911 0.367305 -4.05145 204 182 121 1752393037
-0.390179 0.390179 -4.06465 204 182 121 1752393037
-0.391455 0.413202 -4.07795 204 182 121 1752393037
-0.392739 0.436377 -4.09132 204 182 121 1752393037
-0.394032 0.459704 -4.10479 204 182 121 1752393037
-0.395333 0.483185 -4.11835 204 182 121 1752393037
-0.286937 -1.24755 -3.11911 204 182 121 1752393037
-0.287657 -1.23401 -3.12693 204 182 121 1752393037
-0.28838 -1.22039 -3.13479 204 182 121 1752393037
-0.289107 -1.20671 -3.14269 204 182 121 1752393037
-0.289837 -1.19295 -3.15063 204 182 121 1752393037
-0.290571 -1.17913 -3.15861 204 182 121 1752393037
-0.291309 -1.16524 -3.16663 204 182 121 1752393037
-0.292051 -1.15127 -3.17469 204 182 121 1752393037
-0.292796 -1.13724 -3.1828 204 182 121 1752393037
-0.293546 -1.12313 -3.19094 204 182 121 1752393037
-0.294299 -1.10895 -3.19913 204 182 121 1752393037
-0.295056 -1.0947 -3.20736 204 182 121 1752393037
-0.295817 -1.08037 -3.21563 204 182 121 1752393037
-0.296581 -1.06597 -3.22394 204 182 121 1752393037
-0.29735 -1.0515 -3.2323 204 182 121 1752393037
-0.298123 -1.03695 -3.2407 204 182 121 1752393037
-0.2989 -1.02232 -3.24914 204 182 121 1752393037
-0.299681 -1.00762 -3.25763 204 182 121 1752393037
-0.300466 -0.992843 -3.26616 204 182 121 1752393037
-0.301255 -0.977986 -3.27474 204 182 121 1752393037
-0.302048 -0.963051 -3.28336 204 182 121 1752393037
-0.302845 -0.948037 -3.29203 204 182 121 1752393037
-0.303647 -0.932944 -3.30075 204 182 121 1752393037
-0.304453 -0.917771 -3.30951 204 182 121 1752393037
-0.305263 -0.902517 -3.31831 204 182 121 1752393037
-0.306077 -0.887181 -3.32717 204 182 121 1752393037
-0.306896 -0.871764 -3.33607 204 182 121 1752393037
-0.30772 -0.856263 -3.34502 204 182 121 1752393037
-0.308547 -0.84068 -3.35401 204 182 121 1752393037
-0.309379 -0.825012 -3.36306 204 182 121 1752393037
-0.310216 -0.809259 -3.37215 204 182 121 1752393037
-0.311057 -0.793422 -3.3813 204 182 121 1752393037
-0.311903 -0.777497 -3.39049 204 182 121 1752393037
-0.312753 -0.761487 -3.39974 204 182 121 1752393037
-0.313608 -0.745388 -3.40903 204 182 121 1752393037
-0.314468 -0.729202 -3.41838 204 182 121 1752393037
-0.315333 -0.712926 -3.42777 204 182 121 1752393037
-0.316202 -0.696561 -3.43722 204 182 121 1752393037
-0.317076 -0.680105 -3.44672 204 182 121 1752393037
-0.317955 -0.663558 -3.45628 204 182 121 1752393037
-0.318838 -0.646919 -3.46588 204 182 121 1752393037
-0.319727 -0.630187 -3.47554 204 182 121 1752393037
-0.320621 -0.613361 -3.48526 204 182 121 1752393037
-0.321519 -0.596442 -3.49502 204 182 121 1752393037
-0.322423 -0.579427 -3.50485 204 182 121 1752393037
-0.323332 -0.562316 -3.51473 204 182 121 1752393037
-0.324246 -0.545109 -3.52466 204 182 121 1752393037
-0.325165 -0.527804 -3.53465 204 182 121 1752393037
-0.326089 -0.510401 -3.5447 204 182 121 1752393037
-0.327019 -0.492898 -3.55481 204 182 121 1752393037
-0.327954 -0.475295 -3.56497 204 182 121 1752393037
-0.328894 -0.457592 -3.57519 204 182 121 1752393037
-0.32984 -0.439786 -3.58547 204 182 121 1752393037
-0.330791 -0.421878 -3.59581 204 182 121 1752393037
-0.331748 -0.403867 -3.60621 204 182 121 1752393037
-0.33271 -0.38575 -3.61667 204 182 121 1752393037
-0.333678 -0.367529 -3.62719 204 182 121 1752393037
-0.334651 -0.349201 -3.63777 204 182 121 1752393037
-0.33563 -0.330766 -3.64841 204 182 121 1752393037
-0.336615 -0.312223 -3.65912 204 182 121 1752393037
-0.337606 -0.29357 -3.66989 204 182 121 1752393037
-0.338602 -0.274808 -3.68072 204 182 121 1752393037
-0.339605 -0.255934 -3.69162 204 182 121 1752393037
-0.340613 -0.236948 -3.70258 204 182 121 1752393037
-0.341627 -0.217849 -3.71361 204 182 121 1752393037
-0.342648 -0.198636 -3.7247 204 182 121 1752393037
-0.343674 -0.179308 -3.73586 204 182 121 1752393037
-0.344707 -0.159864 -3.74708 204 182 121 1752393037
-0.345746 -0.140303 -3.75838 204 182 121 1752393037
-0.346791 -0.120623 -3.76974 204 182 121 1752393037
-0.347843 -0.100824 -3.78117 204 182 121 1752393037
-0.348901 -0.080905 -3.79267 204 182 121 1752393037
-0.349965 -0.060864 -3.80424 204 182 121 1752393037
-0.351036 -0.0407 -3.81588 204 182 121 1752393037
-0.352114 -0.020412 -3.8276 204 182 121 1752393037
-0.353198 0 -3.83938 204 182 121 1752393037
-0.354289 0.020538 -3.85124 204 182 121 1752393037
-0.355386 0.041204 -3.86317 204 182 121 1752393037
-0.356491 0.061998 -3.87518 204 182 121 1752393037
-0.357602 0.082922 -3.88726 204 182 121 1752393037
-0.35872 0.103977 -3.89941 204 182 121 1752393037
-0.359846 0.125164 -3.91165 204 182 121 1752393037
-0.360978 0.146484 -3.92395 204 182 121 1752393037
-0.362118 0.167939 -3.93634 204 182 121 1752393037
-0.363264 0.189529 -3.94881 204 182 121 1752393037
-0.364418 0.211257 -3.96135 204 182 121 1752393037
-0.36558 0.233123 -3.97398 204 182 121 1752393037
-0.366749 0.255129 -3.98668 204 182 121 1752393037
-0.367925 0.277277 -3.99947 204 182 121 1752393037
-0.369109 0.299566 -4.01234 204 182 121 1752393037
-0.3703 0.322 -4.02529 204 182 121 1752393037
-0.371499 0.344579 -4.03832 204 182 121 1752393037
-0.372706 0.367305 -4.05145 204 182 121 1752393037
-0.373921 0.390179 -4.06465 204 182 121 1752393037
-0.375144 0.413202 -4.07795 204 182 121 1752393037
-0.376375 0.436377 -4.09132 204 182 121 1752393037
-0.377614 0.459704 -4.10479 204 182 121 1752393037
-0.378861 0.483185 -4.11835 204 182 121 1752393037
-0.274462 -1.24755 -3.11911 204 182 121 1752393037
-0.27515 -1.23401 -3.12693 204 182 121 1752393037
-0.275842 -1.22039 -3.13479 204 182 121 1752393037
-0.276537 -1.20671 -3.14269 204 182 121 1752393037
-0.277236 -1.19295 -3.15063 204 182 121 1752393037
-0.277938 -1.17913 -3.15861 204 182 121 1752393037
-0.278644 -1.16524 -3.16663 204 182 121 1752393037
-0.279353 -1.15127 -3.17469 204 182 121 1752393037
-0.280066 -1.13724 -3.1828 204 182 121 1752393037
-0.280783 -1.12313 -3.19094 204 182 121 1752393037
-0.281503 -1.10895 -3.19913 204 182 121 1752393037
-0.282227 -1.0947 -3.20736 204 182 121 1752393037
-0.282955 -1.08037 -3.21563 204 182 121 1752393037
-0.283687 -1.06597 -3.22394 204 182 121 1752393037
-0.284422 -1.0515 -3.2323 204 182 121 1752393037
-0.285161 -1.03695 -3.2407 204 182 121 1752393037
-0.285904 -1.02232 -3.24914 204 182 121 1752393037
-0.286651 -1.00762 -3.25763 204 182 121 1752393037
-0.287402 -0.992843 -3.26616 204 182 121 1752393037
-0.288157 -0.977986 -3.27474 204 182 121 1752393037
-0.288915 -0.963051 -3.28336 204 182 121 1752393037
-0.289678 -0.948037 -3.29203 204 182 121 1752393037
-0.290445 -0.932944 -3.30075 204 182 121 1752393037
-0.291216 -0.917771 -3.3095 204 182 121 1752393037
-0.291991 -0.902517 -3.31831 204 182 121 1752393037
-0.29277 -0.887181 -3.32717 204 182 121 1752393037
-0.293553 -0.871764 -3.33607 204 182 121 1752393037
-0.29434 -0.856263 -3.34502 204 182 121 1752393037
-0.295132 -0.84068 -3.35401 204 182 121 1752393037
-0.295928 -0.825012 -3.36306 204 182 121 1752393037
-0.296728 -0.809259 -3.37215 204 182 121 1752393037
-0.297533 -0.793422 -3.3813 204 182 121 1752393037
-0.298342 -0.777498 -3.39049 204 182 121 1752393037
-0.299156 -0.761487 -3.39974 204 182 121 1752393037
-0.299973 -0.745388 -3.40903 204 182 121 1752393037
-0.300796 -0.729202 -3.41838 204 182 121 1752393037
-0.301623 -0.712926 -3.42777 204 182 121 1752393037
-0.302454 -0.696561 -3.43722 204 182 121 1752393037
-0.30329 -0.680105 -3.44672 204 182 121 1752393037
-0.304131 -0.663558 -3.45628 204 182 121 1752393037
-0.304976 -0.646919 -3.46588 204 182 121 1752393037
-0.305826 -0.630187 -3.47554 204 182 121 1752393037
-0.306681 -0.613361 -3.48526 204 182 121 1752393037
-0.30754 -0.596442 -3.49503 204 182 121 1752393037
-0.308405 -0.579427 -3.50485 204 182 121 1752393037
-0.309274 -0.562316 -3.51473 204 182 121 1752393037
-0.310148 -0.545109 -3.52466 204 182 121 1752393037
-0.311027 -0.527804 -3.53465 204 182 121 1752393037
-0.311911 -0.510401 -3.5447 204 182 121 1752393037
-0.312801 -0.492898 -3.55481 204 182 121 1752393037
-0.313695 -0.475295 -3.56497 204 182 121 1752393037
-0.314594 -0.457592 -3.57519 204 182 121 1752393037
-0.315499 -0.439786 -3.58547 204 182 121 1752393037
-0.316409 -0.421878 -3.59581 204 182 121 1752393037
-0.317324 -0.403867 -3.60621 204 182 121 1752393037
-0.318244 -0.38575 -3.61667 204 182 121 1752393037
-0.31917 -0.367529 -3.62719 204 182 121 1752393037
-0.320101 -0.349201 -3.63777 204 182 121 1752393037
-0.321038 -0.330766 -3.64841 204 182 121 1752393037
-0.32198 -0.312223 -3.65912 204 182 121 1752393037
-0.322927 -0.29357 -3.66989 204 182 121 1752393037
-0.32388 -0.274808 -3.68072 204 182 121 1752393037
-0.324839 -0.255934 -3.69162 204 182 121 1752393037
-0.325804 -0.236948 -3.70258 204 182 121 1752393037
-0.326774 -0.217849 -3.71361 204 182 121 1752393037
-0.32775 -0.198636 -3.7247 204 182 121 1752393037
-0.328732 -0.179308 -3.73586 204 182 121 1752393037
-0.32972 -0.159864 -3.74708 204 182 121 1752393037
-0.330714 -0.140303 -3.75838 204 182 121 1752393037
-0.331713 -0.120623 -3.76974 204 182 121 1752393037
-0.332719 -0.100824 -3.78117 204 182 121 1752393037
-0.333731 -0.080905 -3.79267 204 182 121 1752393037
-0.334749 -0.060864 -3.80424 204 182 121 1752393037
-0.335774 -0.0407 -3.81588 204 182 121 1752393037
-0.336804 -0.020412 -3.8276 204 182 121 1752393037
-0.337842 0 -3.83938 204 182 121 1752393037
-0.338885 0.020538 -3.85124 204 182 121 1752393037
-0.339935 0.041204 -3.86317 204 182 121 1752393037
-0.340991 0.061998 -3.87518 204 182 121 1752393037
-0.342054 0.082922 -3.88726 204 182 121 1752393037
-0.343124 0.103977 -3.89941 204 182 121 1752393037
-0.3442 0.125164 -3.91164 204 182 121 1752393037
-0.345283 0.146484 -3.92395 204 182 121 1752393037
-0.346373 0.167939 -3.93634 204 182 121 1752393037
-0.34747 0.189529 -3.94881 204 182 121 1752393037
-0.348574 0.211257 -3.96135 204 182 121 1752393037
-0.349685 0.233123 -3.97398 204 182 121 1752393037
-0.350803 0.255129 -3.98668 204 182 121 1752393037
-0.351928 0.277277 -3.99947 204 182 121 1752393037
-0.353061 0.299566 -4.01234 204 182 121 1752393037
-0.3542 0.322 -4.02529 204 182 121 1752393037
-0.355347 0.344579 -4.03833 204 182 121 1752393037
-0.356502 0.367305 -4.05145 204 182 121 1752393037
-0.357664 0.390179 -4.06465 204 182 121 1752393037
-0.358834 0.413202 -4.07795 204 182 121 1752393037
-0.360011 0.436377 -4.09132 204 182 121 1752393037
-0.361196 0.459704 -4.10479 204 182 121 1752393037
-0.362389 0.483185 -4.11835 204 182 121 1752393037
-0.261986 -1.24755 -3.11911 204 182 121 1752393037
-0.262643 -1.23401 -3.12693 204 182 121 1752393037
-0.263303 -1.22039 -3.13479 204 182 121 1752393037
-0.263967 -1.20671 -3.14269 204 182 121 1752393037
-0.264634 -1.19295 -3.15063 204 182 121 1752393037
-0.265304 -1.17913 -3.15861 204 182 121 1752393037
-0.265978 -1.16524 -3.16663 204 182 121 1752393037
-0.266655 -1.15127 -3.17469 204 182 121 1752393037
-0.267336 -1.13724 -3.1828 204 182 121 1752393037
-0.26802 -1.12313 -3.19094 204 182 121 1752393037
-0.268708 -1.10895 -3.19913 204 182 121 1752393037
-0.269399 -1.0947 -3.20736 204 182 121 1752393037
-0.270093 -1.08037 -3.21563 204 182 121 1752393037
-0.270792 -1.06597 -3.22394 204 182 121 1752393037
-0.271494 -1.0515 -3.2323 204 182 121 1752393037
-0.272199 -1.03695 -3.2407 204 182 121 1752393037
-0.272908 -1.02232 -3.24914 204 182 121 1752393037
-0.273621 -1.00762 -3.25763 204 182 121 1752393037
-0.274338 -0.992843 -3.26616 204 182 121 1752393037
-0.275059 -0.977986 -3.27474 204 182 121 1752393037
-0.275783 -0.963051 -3.28336 204 182 121 1752393037
-0.276511 -0.948037 -3.29203 204 182 121 1752393037
-0.277243 -0.932944 -3.30075 204 182 121 1752393037
-0.277979 -0.917771 -3.30951 204 182 121 1752393037
-0.278718 -0.902517 -3.31831 204 182 121 1752393037
-0.279462 -0.887181 -3.32717 204 182 121 1752393037
-0.28021 -0.871764 -3.33607 204 182 121 1752393037
-0.280961 -0.856263 -3.34502 204 182 121 1752393037
-0.281717 -0.84068 -3.35401 204 182 121 1752393037
-0.282477 -0.825012 -3.36306 204 182 121 1752393037
-0.283241 -0.809259 -3.37215 204 182 121 1752393037
-0.284009 -0.793422 -3.3813 204 182 121 1752393037
-0.284781 -0.777497 -3.39049 204 182 121 1752393037
-0.285557 -0.761487 -3.39974 204 182 121 1752393037
-0.286338 -0.745388 -3.40903 204 182 121 1752393037
-0.287123 -0.729202 -3.41838 204 182 121 1752393037
-0.287912 -0.712926 -3.42777 204 182 121 1752393037
-0.288706 -0.696561 -3.43722 204 182 121 1752393037
-0.289504 -0.680105 -3.44672 204 182 121 1752393037
-0.290306 -0.663558 -3.45628 204 182 121 1752393037
-0.291113 -0.646919 -3.46588 204 182 121 1752393037
-0.291925 -0.630187 -3.47554 204 182 121 1752393037
-0.292741 -0.613361 -3.48526 204 182 121 1752393037
-0.293561 -0.596442 -3.49502 204 182 121 1752393037
-0.294386 -0.579427 -3.50485 204 182 121 1752393037
-0.295216 -0.562316 -3.51473 204 182 121 1752393037
-0.296051 -0.545109 -3.52466 204 182 121 1752393037
-0.29689 -0.527804 -3.53465 204 182 121 1752393037
-0.297734 -0.510401 -3.5447 204 182 121 1752393037
-0.298582 -0.492898 -3.55481 204 182 121 1752393037
-0.299436 -0.475295 -3.56497 204 182 121 1752393037
-0.300295 -0.457592 -3.57519 204 182 121 1752393037
-0.301158 -0.439786 -3.58547 204 182 121 1752393037
-0.302027 -0.421878 -3.59581 204 182 121 1752393037
-0.3029 -0.403867 -3.60621 204 182 121 1752393037
-0.303778 -0.38575 -3.61667 204 182 121 1752393037
-0.304662 -0.367529 -3.62719 204 182 121 1752393037
-0.305551 -0.349201 -3.63777 204 182 121 1752393037
-0.306445 -0.330766 -3.64841 204 182 121 1752393037
-0.307344 -0.312223 -3.65912 204 182 121 1752393037
-0.308249 -0.29357 -3.66989 204 182 121 1752393037
-0.309159 -0.274808 -3.68072 204 182 121 1752393037
-0.310074 -0.255934 -3.69162 204 182 121 1752393037
-0.310995 -0.236948 -3.70258 204 182 121 1752393037
-0.311921 -0.217849 -3.71361 204 182 121 1752393037
-0.312852 -0.198636 -3.7247 204 182 121 1752393037
-0.31379 -0.179308 -3.73586 204 182 121 1752393037
-0.314733 -0.159864 -3.74708 204 182 121 1752393037
-0.315681 -0.140303 -3.75838 204 182 121 1752393037
-0.316636 -0.120623 -3.76974 204 182 121 1752393037
-0.317596 -0.100824 -3.78117 204 182 121 1752393037
-0.318562 -0.080905 -3.79267 204 182 121 1752393037
-0.319534 -0.060864 -3.80424 204 182 121 1752393037
-0.320511 -0.0407 -3.81588 204 182 121 1752393037
-0.321495 -0.020412 -3.8276 204 182 121 1752393037
-0.322485 0 -3.83938 204 182 121 1752393037
-0.323481 0.020538 -3.85124 204 182 121 1752393037
-0.324483 0.041204 -3.86317 204 182 121 1752393037
-0.325492 0.061998 -3.87518 204 182 121 1752393037
-0.326506 0.082922 -3.88726 204 182 121 1752393037
-0.327527 0.103977 -3.89941 204 182 121 1752393037
-0.328555 0.125164 -3.91164 204 182 121 1752393037
-0.329589 0.146484 -3.92395 204 182 121 1752393037
-0.330629 0.167939 -3.93634 204 182 121 1752393037
-0.331676 0.189529 -3.94881 204 182 121 1752393037
-0.33273 0.211257 -3.96135 204 182 121 1752393037
-0.33379 0.233123 -3.97398 204 182 121 1752393037
-0.334857 0.255129 -3.98668 204 182 121 1752393037
-0.335931 0.277277 -3.99947 204 182 121 1752393037
-0.337012 0.299566 -4.01234 204 182 121 1752393037
-0.3381 0.322 -4.02529 204 182 121 1752393037
-0.339195 0.344579 -4.03832 204 182 121 1752393037
-0.340297 0.367305 -4.05145 204 182 121 1752393037
-0.341406 0.390179 -4.06465 204 182 121 1752393037
-0.342523 0.413202 -4.07795 204 182 121 1752393037
-0.343647 0.436377 -4.09132 204 182 121 1752393037
-0.344778 0.459704 -4.10479 204 182 121 1752393037
-0.345917 0.483185 -4.11835 204 182 121 1752393037
-0.249511 -1.24755 -3.11911 204 182 121 1752393037
-0.250136 -1.23401 -3.12693 204 182 121 1752393037
-0.250765 -1.22039 -3.13479 204 182 121 1752393037
-0.251397 -1.20671 -3.14269 204 182 121 1752393037
-0.252032 -1.19295 -3.15063 204 182 121 1752393037
-0.252671 -1.17913 -3.15861 204 182 121 1752393037
-0.253312 -1.16524 -3.16663 204 182 121 1752393037
-0.253957 -1.15127 -3.17469 204 182 121 1752393037
-0.254606 -1.13724 -3.1828 204 182 121 1752393037
-0.255257 -1.12313 -3.19094 204 182 121 1752393037
-0.255912 -1.10895 -3.19913 204 182 121 1752393037
-0.25657 -1.0947 -3.20736 204 182 121 1752393037
-0.257232 -1.08037 -3.21563 204 182 121 1752393037
-0.257897 -1.06597 -3.22394 204 182 121 1752393037
-0.258565 -1.0515 -3.2323 204 182 121 1752393037
-0.259237 -1.03695 -3.2407 204 182 121 1752393037
-0.259913 -1.02232 -3.24914 204 182 121 1752393037
-0.260592 -1.00762 -3.25763 204 182 121 1752393037
-0.261274 -0.992843 -3.26616 204 182 121 1752393037
-0.261961 -0.977986 -3.27474 204 182 121 1752393037
-0.26265 -0.963051 -3.28336 204 182 121 1752393037
-0.263344 -0.948037 -3.29203 204 182 121 1752393037
-0.264041 -0.932944 -3.30075 204 182 121 1752393037
-0.264742 -0.917771 -3.30951 204 182 121 1752393037
-0.265446 -0.902517 -3.31831 204 182 121 1752393037
-0.266154 -0.887181 -3.32717 204 182 121 1752393037
-0.266866 -0.871763 -3.33607 204 182 121 1752393037
-0.267582 -0.856263 -3.34502 204 182 121 1752393037
-0.268302 -0.84068 -3.35401 204 182 121 1752393037
-0.269026 -0.825012 -3.36306 204 182 121 1752393037
-0.269753 -0.809259 -3.37215 204 182 121 1752393037
-0.270485 -0.793422 -3.3813 204 182 121 1752393037
-0.27122 -0.777498 -3.39049 204 182 121 1752393037
-0.271959 -0.761487 -3.39974 204 182 121 1752393037
-0.272703 -0.745388 -3.40903 204 182 121 1752393037
-0.273451 -0.729202 -3.41838 204 182 121 1752393037
-0.274202 -0.712926 -3.42777 204 182 121 1752393037
-0.274958 -0.696561 -3.43722 204 182 121 1752393037
-0.275718 -0.680105 -3.44672 204 182 121 1752393037
-0.276482 -0.663558 -3.45628 204 182 121 1752393037
-0.277251 -0.646919 -3.46588 204 182 121 1752393037
-0.278024 -0.630187 -3.47554 204 182 121 1752393037
-0.278801 -0.613361 -3.48526 204 182 121 1752393037
-0.279582 -0.596442 -3.49503 204 182 121 1752393037
-0.280368 -0.579427 -3.50485 204 182 121 1752393037
-0.281158 -0.562316 -3.51473 204 182 121 1752393037
-0.281953 -0.545109 -3.52466 204 182 121 1752393037
-0.282752 -0.527804 -3.53465 204 182 121 1752393037
-0.283556 -0.510401 -3.5447 204 182 121 1752393037
-0.284364 -0.492898 -3.55481 204 182 121 1752393037
-0.285177 -0.475295 -3.56497 204 182 121 1752393037
-0.285995 -0.457592 -3.57519 204 182 121 1752393037
-0.286817 -0.439786 -3.58547 204 182 121 1752393037
-0.287644 -0.421878 -3.59581 204 182 121 1752393037
-0.288476 -0.403867 -3.60621 204 182 121 1752393037
-0.289313 -0.38575 -3.61667 204 182 121 1752393037
-0.290154 -0.367529 -3.62719 204 182 121 1752393037
-0.291001 -0.349201 -3.63777 204 182 121 1752393037
-0.291852 -0.330766 -3.64841 204 182 121 1752393037
-0.292709 -0.312223 -3.65912 204 182 121 1752393037
-0.29357 -0.29357 -3.66989 204 182 121 1752393037
-0.294437 -0.274808 -3.68072 204 182 121 1752393037
-0.295308 -0.255934 -3.69162 204 182 121 1752393037
-0.296185 -0.236948 -3.70258 204 182 121 1752393037
-0.297067 -0.217849 -3.71361 204 182 121 1752393037
-0.297955 -0.198636 -3.7247 204 182 121 1752393037
-0.298847 -0.179308 -3.73586 204 182 121 1752393037
-0.299745 -0.159864 -3.74708 204 182 121 1752393037
-0.300649 -0.140303 -3.75838 204 182 121 1752393037
-0.301558 -0.120623 -3.76974 204 182 121 1752393037
-0.302472 -0.100824 -3.78117 204 182 121 1752393037
-0.303392 -0.080905 -3.79267 204 182 121 1752393037
-0.304318 -0.060864 -3.80424 204 182 121 1752393037
-0.305249 -0.0407 -3.81588 204 182 121 1752393037
-0.306186 -0.020412 -3.8276 204 182 121 1752393037
-0.307129 0 -3.83938 204 182 121 1752393037
-0.308077 0.020538 -3.85124 204 182 121 1752393037
-0.309032 0.041204 -3.86317 204 182 121 1752393037
-0.309992 0.061998 -3.87518 204 182 121 1752393037
-0.310958 0.082922 -3.88726 204 182 121 1752393037
-0.311931 0.103977 -3.89941 204 182 121 1752393037
-0.312909 0.125164 -3.91164 204 182 121 1752393037
-0.313894 0.146484 -3.92395 204 182 121 1752393037
-0.314885 0.167939 -3.93634 204 182 121 1752393037
-0.315882 0.189529 -3.94881 204 182 121 1752393037
-0.316885 0.211257 -3.96135 204 182 121 1752393037
-0.317895 0.233123 -3.97398 204 182 121 1752393037
-0.318912 0.255129 -3.98668 204 182 121 1752393037
-0.319935 0.277277 -3.99947 204 182 121 1752393037
-0.320964 0.299566 -4.01234 204 182 121 1752393037
-0.322 0.322 -4.02529 204 182 121 1752393037
-0.323043 0.344579 -4.03832 204 182 121 1752393037
-0.324093 0.367305 -4.05145 204 182 121 1752393037
-0.325149 0.390179 -4.06465 204 182 121 1752393037
-0.326212 0.413202 -4.07795 204 182 121 1752393037
-0.327283 0.436377 -4.09132 204 182 121 1752393037
-0.32836 0.459704 -4.10479 204 182 121 1752393037
-0.329444 0.483185 -4.11835 204 182 121 1752393037
-0.237035 -1.24755 -3.11911 204 182 121 1752393037
-0.237629 -1.23401 -3.12693 204 182 121 1752393037
-0.238227 -1.22039 -3.13479 204 182 121 1752393037
-0.238827 -1.20671 -3.14269 204 182 121 1752393037
-0.239431 -1.19295 -3.15063 204 182 121 1752393037
-0.240037 -1.17913 -3.15861 204 182 121 1752393037
-0.240647 -1.16524 -3.16663 204 182 121 1752393037
-0.241259 -1.15127 -3.17469 204 182 121 1752393037
-0.241875 -1.13724 -3.1828 204 182 121 1752393037
-0.242494 -1.12313 -3.19094 204 182 121 1752393037
-0.243116 -1.10895 -3.19913 204 182 121 1752393037
-0.243742 -1.0947 -3.20736 204 182 121 1752393037
-0.24437 -1.08037 -3.21563 204 182 121 1752393037
-0.245002 -1.06597 -3.22394 204 182 121 1752393037
-0.245637 -1.0515 -3.2323 204 182 121 1752393037
-0.246275 -1.03695 -3.2407 204 182 121 1752393037
-0.246917 -1.02232 -3.24914 204 182 121 1752393037
-0.247562 -1.00762 -3.25763 204 182 121 1752393037
-0.248211 -0.992843 -3.26616 204 182 121 1752393037
-0.248863 -0.977986 -3.27474 204 182 121 1752393037
-0.249518 -0.963051 -3.28336 204 182 121 1752393037
-0.250177 -0.948037 -3.29203 204 182 121 1752393037
-0.250839 -0.932944 -3.30075 204 182 121 1752393037
-0.251504 -0.917771 -3.3095 204 182 121 1752393037
-0.252174 -0.902517 -3.31831 204 182 121 1752393037
-0.252847 -0.887181 -3.32717 204 182 121 1752393037
-0.253523 -0.871763 -3.33607 204 182 121 1752393037
-0.254203 -0.856263 -3.34502 204 182 121 1752393037
-0.254887 -0.84068 -3.35401 204 182 121 1752393037
-0.255574 -0.825012 -3.36306 204 182 121 1752393037
-0.256265 -0.809259 -3.37215 204 182 121 1752393037
-0.25696 -0.793421 -3.3813 204 182 121 1752393037
-0.257659 -0.777498 -3.39049 204 182 121 1752393037
-0.258362 -0.761487 -3.39974 204 182 121 1752393037
-0.259068 -0.745388 -3.40903 204 182 121 1752393037
-0.259778 -0.729202 -3.41838 204 182 121 1752393037
-0.260492 -0.712926 -3.42777 204 182 121 1752393037
-0.26121 -0.696561 -3.43722 204 182 121 1752393037
-0.261932 -0.680105 -3.44672 204 182 121 1752393037
-0.262658 -0.663558 -3.45628 204 182 121 1752393037
-0.263388 -0.646919 -3.46588 204 182 121 1752393037
-0.264122 -0.630187 -3.47554 204 182 121 1752393037
-0.264861 -0.613361 -3.48526 204 182 121 1752393037
-0.265603 -0.596442 -3.49502 204 182 121 1752393037
-0.266349 -0.579427 -3.50485 204 182 121 1752393037
-0.2671 -0.562316 -3.51473 204 182 121 1752393037
-0.267855 -0.545109 -3.52466 204 182 121 1752393037
-0.268614 -0.527804 -3.53465 204 182 121 1752393037
-0.269378 -0.510401 -3.5447 204 182 121 1752393037
-0.270146 -0.492898 -3.55481 204 182 121 1752393037
-0.270918 -0.475295 -3.56497 204 182 121 1752393037
-0.271695 -0.457592 -3.57519 204 182 121 1752393037
-0.272476 -0.439786 -3.58547 204 182 121 1752393037
-0.273262 -0.421878 -3.59581 204 182 121 1752393037
-0.274052 -0.403867 -3.60621 204 182 121 1752393037
-0.274847 -0.38575 -3.61667 204 182 121 1752393037
-0.275647 -0.367529 -3.62719 204 182 121 1752393037
-0.276451 -0.349201 -3.63777 204 182 121 1752393037
-0.27726 -0.330766 -3.64841 204 182 121 1752393037
-0.278073 -0.312223 -3.65912 204 182 121 1752393037
-0.278892 -0.29357 -3.66989 204 182 121 1752393037
-0.279715 -0.274808 -3.68072 204 182 121 1752393037
-0.280543 -0.255934 -3.69162 204 182 121 1752393037
-0.281376 -0.236948 -3.70258 204 182 121 1752393037
-0.282214 -0.217849 -3.71361 204 182 121 1752393037
-0.283057 -0.198636 -3.7247 204 182 121 1752393037
-0.283905 -0.179308 -3.73586 204 182 121 1752393037
-0.284758 -0.159864 -3.74708 204 182 121 1752393037
-0.285616 -0.140303 -3.75838 204 182 121 1752393037
-0.28648 -0.120623 -3.76974 204 182 121 1752393037
-0.287348 -0.100824 -3.78117 204 182 121 1752393037
-0.288222 -0.080905 -3.79267 204 182 121 1752393037
-0.289102 -0.060864 -3.80424 204 182 121 1752393037
-0.289986 -0.0407 -3.81588 204 182 121 1752393037
-0.290877 -0.020412 -3.8276 204 182 121 1752393037
-0.291772 0 -3.83938 204 182 121 1752393037
-0.292673 0.020538 -3.85124 204 182 121 1752393037
-0.29358 0.041204 -3.86317 204 182 121 1752393037
-0.294492 0.061998 -3.87518 204 182 121 1752393037
-0.29541 0.082922 -3.88726 204 182 121 1752393037
-0.296334 0.103977 -3.89941 204 182 121 1752393037
-0.297264 0.125164 -3.91164 204 182 121 1752393037
-0.298199 0.146484 -3.92395 204 182 121 1752393037
-0.299141 0.167939 -3.93634 204 182 121 1752393037
-0.300088 0.189529 -3.94881 204 182 121 1752393037
-0.301041 0.211257 -3.96135 204 182 121 1752393037
-0.302001 0.233123 -3.97398 204 182 121 1752393037
-0.302966 0.255129 -3.98668 204 182 121 1752393037
-0.303938 0.277277 -3.99947 204 182 121 1752393037
-0.304916 0.299566 -4.01234 204 182 121 1752393037
-0.3059 0.322 -4.02529 204 182 121 1752393037
-0.306891 0.344579 -4.03832 204 182 121 1752393037
-0.307888 0.367305 -4.05145 204 182 121 1752393037
-0.308892 0.390179 -4.06465 204 182 121 1752393037
-0.309902 0.413202 -4.07795 204 182 121 1752393037
-0.310919 0.436377 -4.09132 204 182 121 1752393037
-0.311942 0.459704 -4.10479 204 182 121 1752393037
-0.312972 0.483185 -4.11835 204 182 121 1752393037
-0.22456 -1.24755 -3.11911 204 182 121 1752393037
-0.225123 -1.23401 -3.12693 204 182 121 1752393037
-0.225689 -1.22039 -3.13479 204 182 121 1752393037
-0.226257 -1.20671 -3.14269 204 182 121 1752393037
-0.226829 -1.19295 -3.15063 204 182 121 1752393037
-0.227404 -1.17913 -3.15861 204 182 121 1752393037
-0.227981 -1.16524 -3.16663 204 182 121 1752393037
-0.228562 -1.15127 -3.17469 204 182 121 1752393037
-0.229145 -1.13724 -3.1828 204 182 121 1752393037
-0.229731 -1.12313 -3.19094 204 182 121 1752393037
-0.230321 -1.10895 -3.19913 204 182 121 1752393037
-0.230913 -1.0947 -3.20736 204 182 121 1752393037
-0.231509 -1.08037 -3.21563 204 182 121 1752393037
-0.232107 -1.06597 -3.22394 204 182 121 1752393037
-0.232709 -1.0515 -3.2323 204 182 121 1752393037
-0.233314 -1.03695 -3.2407 204 182 121 1752393037
-0.233922 -1.02232 -3.24914 204 182 121 1752393037
-0.234533 -1.00762 -3.25763 204 182 121 1752393037
-0.235147 -0.992843 -3.26616 204 182 121 1752393037
-0.235764 -0.977986 -3.27474 204 182 121 1752393037
-0.236385 -0.963051 -3.28336 204 182 121 1752393037
-0.237009 -0.948037 -3.29203 204 182 121 1752393037
-0.237637 -0.932944 -3.30075 204 182 121 1752393037
-0.238267 -0.917771 -3.3095 204 182 121 1752393037
-0.238901 -0.902517 -3.31831 204 182 121 1752393037
-0.239539 -0.887181 -3.32717 204 182 121 1752393037
-0.24018 -0.871763 -3.33607 204 182 121 1752393037
-0.240824 -0.856263 -3.34502 204 182 121 1752393037
-0.241472 -0.84068 -3.35401 204 182 121 1752393037
-0.242123 -0.825012 -3.36306 204 182 121 1752393037
-0.242778 -0.809259 -3.37215 204 182 121 1752393037
-0.243436 -0.793422 -3.3813 204 182 121 1752393037
-0.244098 -0.777497 -3.39049 204 182 121 1752393037
-0.244764 -0.761487 -3.39974 204 182 121 1752393037
-0.245433 -0.745388 -3.40903 204 182 121 1752393037
-0.246106 -0.729202 -3.41838 204 182 121 1752393037
-0.246782 -0.712926 -3.42777 204 182 121 1752393037
-0.247462 -0.69656 -3.43722 204 182 121 1752393037
-0.248146 -0.680105 -3.44672 204 182 121 1752393037
-0.248834 -0.663558 -3.45628 204 182 121 1752393037
-0.249526 -0.646919 -3.46588 204 182 121 1752393037
-0.250221 -0.630187 -3.47554 204 182 121 1752393037
-0.250921 -0.613361 -3.48526 204 182 121 1752393037
-0.251624 -0.596442 -3.49502 204 182 121 1752393037
-0.252331 -0.579427 -3.50485 204 182 121 1752393037
-0.253042 -0.562316 -3.51473 204 182 121 1752393037
-0.253758 -0.545109 -3.52466 204 182 121 1752393037
-0.254477 -0.527804 -3.53465 204 182 121 1752393037
-0.2552 -0.510401 -3.5447 204 182 121 1752393037
-0.255928 -0.492898 -3.55481 204 182 121 1752393037
-0.256659 -0.475295 -3.56497 204 182 121 1752393037
-0.257395 -0.457592 -3.57519 204 182 121 1752393037
-0.258135 -0.439786 -3.58547 204 182 121 1752393037
-0.25888 -0.421878 -3.59581 204 182 121 1752393037
-0.259629 -0.403867 -3.60621 204 182 121 1752393037
-0.260382 -0.38575 -3.61667 204 182 121 1752393037
-0.261139 -0.367529 -3.62719 204 182 121 1752393037
-0.261901 -0.349201 -3.63777 204 182 121 1752393037
-0.262667 -0.330766 -3.64841 204 182 121 1752393037
-0.263438 -0.312223 -3.65912 204 182 121 1752393037
-0.264213 -0.29357 -3.66989 204 182 121 1752393037
-0.264993 -0.274808 -3.68072 204 182 121 1752393037
-0.265778 -0.255934 -3.69162 204 182 121 1752393037
-0.266567 -0.236948 -3.70258 204 182 121 1752393037
-0.267361 -0.217849 -3.71361 204 182 121 1752393037
-0.268159 -0.198636 -3.7247 204 182 121 1752393037
-0.268963 -0.179308 -3.73586 204 182 121 1752393037
-0.269771 -0.159864 -3.74708 204 182 121 1752393037
-0.270584 -0.140303 -3.75838 204 182 121 1752393037
-0.271402 -0.120623 -3.76974 204 182 121 1752393037
-0.272225 -0.100824 -3.78117 204 182 121 1752393037
-0.273053 -0.080905 -3.79267 204 182 121 1752393037
-0.273886 -0.060864 -3.80424 204 182 121 1752393037
-0.274724 -0.0407 -3.81588 204 182 121 1752393037
-0.275567 -0.020412 -3.8276 204 182 121 1752393037
-0.276416 0 -3.83938 204 182 121 1752393037
-0.277269 0.020538 -3.85124 204 182 121 1752393037
-0.278129 0.041204 -3.86317 204 182 121 1752393037
-0.278993 0.061998 -3.87518 204 182 121 1752393037
-0.279863 0.082922 -3.88726 204 182 121 1752393037
-0.280738 0.103977 -3.89941 204 182 121 1752393037
-0.281618 0.125164 -3.91164 204 182 121 1752393037
-0.282505 0.146484 -3.92395 204 182 121 1752393037
-0.283396 0.167939 -3.93634 204 182 121 1752393037
-0.284294 0.189529 -3.94881 204 182 121 1752393037
-0.285197 0.211257 -3.96135 204 182 121 1752393037
-0.286106 0.233123 -3.97398 204 182 121 1752393037
-0.287021 0.255129 -3.98668 204 182 121 1752393037
-0.287941 0.277277 -3.99947 204 182 121 1752393037
-0.288868 0.299566 -4.01234 204 182 121 1752393037
-0.2898 0.322 -4.02529 204 182 121 1752393037
-0.290739 0.344579 -4.03832 204 182 121 1752393037
-0.291683 0.367305 -4.05145 204 182 121 1752393037
-0.292634 0.390179 -4.06465 204 182 121 1752393037
-0.293591 0.413202 -4.07795 204 182 121 1752393037
-0.294554 0.436377 -4.09132 204 182 121 1752393037
-0.295524 0.459704 -4.10479 204 182 121 1752393037
-0.2965 0.483185 -4.11835 204 182 121 1752393037
-0.212084 -1.24755 -3.11911 204 182 121 1752393037
-0.212616 -1.23401 -3.12693 204 182 121 1752393037
-0.21315 -1.22039 -3.13479 204 182 121 1752393037
-0.213688 -1.20671 -3.14269 204 182 121 1752393037
-0.214227 -1.19295 -3.15063 204 182 121 1752393037
-0.21477 -1.17913 -3.15861 204 182 121 1752393037
-0.215316 -1.16524 -3.16663 204 182 121 1752393037
-0.215864 -1.15127 -3.17469 204 182 121 1752393037
-0.216415 -1.13724 -3.1828 204 182 121 1752393037
-0.216968 -1.12313 -3.19094 204 182 121 1752393037
-0.217525 -1.10895 -3.19913 204 182 121 1752393037
-0.218085 -1.0947 -3.20736 204 182 121 1752393037
-0.218647 -1.08037 -3.21563 204 182 121 1752393037
-0.219212 -1.06597 -3.22394 204 182 121 1752393037
-0.219781 -1.0515 -3.2323 204 182 121 1752393037
-0.220352 -1.03695 -3.2407 204 182 121 1752393037
-0.220926 -1.02232 -3.24914 204 182 121 1752393037
-0.221503 -1.00762 -3.25763 204 182 121 1752393037
-0.222083 -0.992843 -3.26616 204 182 121 1752393037
-0.222666 -0.977986 -3.27474 204 182 121 1752393037
-0.223253 -0.963051 -3.28336 204 182 121 1752393037
-0.223842 -0.948037 -3.29203 204 182 121 1752393037
-0.224435 -0.932944 -3.30075 204 182 121 1752393037
-0.22503 -0.917771 -3.3095 204 182 121 1752393037
-0.225629 -0.902517 -3.31831 204 182 121 1752393037
-0.226231 -0.887181 -3.32717 204 182 121 1752393037
-0.226836 -0.871763 -3.33607 204 182 121 1752393037
-0.227445 -0.856263 -3.34502 204 182 121 1752393037
-0.228057 -0.84068 -3.35401 204 182 121 1752393037
-0.228672 -0.825012 -3.36306 204 182 121 1752393037
-0.22929 -0.809259 -3.37215 204 182 121 1752393037
-0.229912 -0.793422 -3.3813 204 182 121 1752393037
-0.230537 -0.777497 -3.39049 204 182 121 1752393037
-0.231166 -0.761487 -3.39974 204 182 121 1752393037
-0.231798 -0.745388 -3.40903 204 182 121 1752393037
-0.232433 -0.729202 -3.41838 204 182 121 1752393037
-0.233072 -0.712926 -3.42777 204 182 121 1752393037
-0.233714 -0.696561 -3.43722 204 182 121 1752393037
-0.23436 -0.680105 -3.44672 204 182 121 1752393037
-0.23501 -0.663558 -3.45628 204 182 121 1752393037
-0.235663 -0.646919 -3.46588 204 182 121 1752393037
-0.23632 -0.630187 -3.47554 204 182 121 1752393037
-0.236981 -0.613361 -3.48526 204 182 121 1752393037
-0.237645 -0.596442 -3.49502 204 182 121 1752393037
-0.238313 -0.579427 -3.50485 204 182 121 1752393037
-0.238984 -0.562316 -3.51473 204 182 121 1752393037
-0.23966 -0.545109 -3.52466 204 182 121 1752393037
-0.240339 -0.527804 -3.53465 204 182 121 1752393037
-0.241022 -0.510401 -3.5447 204 182 121 1752393037
-0.24171 -0.492898 -3.55481 204 182 121 1752393037
-0.242401 -0.475295 -3.56497 204 182 121 1752393037
-0.243096 -0.457592 -3.57519 204 182 121 1752393037
-0.243795 -0.439786 -3.58547 204 182 121 1752393037
-0.244498 -0.421878 -3.59581 204 182 121 1752393037
-0.245205 -0.403867 -3.60621 204 182 121 1752393037
-0.245916 -0.38575 -3.61667 204 182 121 1752393037
-0.246631 -0.367529 -3.62719 204 182 121 1752393037
-0.247351 -0.349201 -3.63777 204 182 121 1752393037
-0.248074 -0.330766 -3.64841 204 182 121 1752393037
-0.248802 -0.312223 -3.65912 204 182 121 1752393037
-0.249535 -0.29357 -3.66989 204 182 121 1752393037
-0.250271 -0.274808 -3.68072 204 182 121 1752393037
-0.251012 -0.255934 -3.69162 204 182 121 1752393037
-0.251757 -0.236948 -3.70258 204 182 121 1752393037
-0.252507 -0.217849 -3.71361 204 182 121 1752393037
-0.253261 -0.198636 -3.7247 204 182 121 1752393037
-0.25402 -0.179308 -3.73586 204 182 121 1752393037
-0.254784 -0.159864 -3.74708 204 182 121 1752393037
-0.255551 -0.140303 -3.75838 204 182 121 1752393037
-0.256324 -0.120623 -3.76974 204 182 121 1752393037
-0.257101 -0.100824 -3.78117 204 182 121 1752393037
-0.257883 -0.080905 -3.79267 204 182 121 1752393037
-0.25867 -0.060864 -3.80424 204 182 121 1752393037
-0.259462 -0.0407 -3.81588 204 182 121 1752393037
-0.260258 -0.020412 -3.8276 204 182 121 1752393037
-0.261059 0 -3.83938 204 182 121 1752393037
-0.261866 0.020538 -3.85124 204 182 121 1752393037
-0.262677 0.041204 -3.86317 204 182 121 1752393037
-0.263493 0.061998 -3.87518 204 182 121 1752393037
-0.264315 0.082922 -3.88726 204 182 121 1752393037
-0.265141 0.103977 -3.89941 204 182 121 1752393037
-0.265973 0.125164 -3.91165 204 182 121 1752393037
-0.26681 0.146484 -3.92395 204 182 121 1752393037
-0.267652 0.167939 -3.93634 204 182 121 1752393037
-0.2685 0.189529 -3.94881 204 182 121 1752393037
-0.269353 0.211257 -3.96135 204 182 121 1752393037
-0.270211 0.233123 -3.97398 204 182 121 1752393037
-0.271075 0.255129 -3.98668 204 182 121 1752393037
-0.271944 0.277277 -3.99947 204 182 121 1752393037
-0.272819 0.299566 -4.01234 204 182 121 1752393037
-0.2737 0.322 -4.02529 204 182 121 1752393037
-0.274587 0.344579 -4.03832 204 182 121 1752393037
-0.275479 0.367305 -4.05145 204 182 121 1752393037
-0.276377 0.390179 -4.06465 204 182 121 1752393037
-0.277281 0.413202 -4.07795 204 182 121 1752393037
-0.27819 0.436377 -4.09132 204 182 121 1752393037
-0.279106 0.459704 -4.10479 204 182 121 1752393037
-0.280028 0.483185 -4.11835 204 182 121 1752393037
-0.199608 -1.24755 -3.11911 204 182 121 1752393037
-0.200109 -1.23401 -3.12693 204 182 121 1752393037
-0.200612 -1.22039 -3.13479 204 182 121 1752393037
-0.201118 -1.20671 -3.14269 204 182 121 1752393037
-0.201626 -1.19295 -3.15063 204 182 121 1752393037
-0.202137 -1.17913 -3.15861 204 182 121 1752393037
-0.20265 -1.16524 -3.16663 204 182 121 1752393037
-0.203166 -1.15127 -3.17469 204 182 121 1752393037
-0.203684 -1.13724 -3.1828 204 182 121 1752393037
-0.204206 -1.12313 -3.19094 204 182 121 1752393037
-0.204729 -1.10895 -3.19913 204 182 121 1752393037
-0.205256 -1.0947 -3.20736 204 182 121 1752393037
-0.205785 -1.08037 -3.21563 204 182 121 1752393037
-0.206317 -1.06597 -3.22394 204 182 121 1752393037
-0.206852 -1.0515 -3.2323 204 182 121 1752393037
-0.20739 -1.03695 -3.2407 204 182 121 1752393037
-0.20793 -1.02232 -3.24914 204 182 121 1752393037
-0.208473 -1.00762 -3.25763 204 182 121 1752393037
-0.209019 -0.992843 -3.26616 204 182 121 1752393037
-0.209568 -0.977986 -3.27474 204 182 121 1752393037
-0.21012 -0.963051 -3.28336 204 182 121 1752393037
-0.210675 -0.948037 -3.29203 204 182 121 1752393037
-0.211233 -0.932944 -3.30075 204 182 121 1752393037
-0.211793 -0.917771 -3.3095 204 182 121 1752393037
-0.212357 -0.902517 -3.31831 204 182 121 1752393037
-0.212923 -0.887181 -3.32717 204 182 121 1752393037
-0.213493 -0.871763 -3.33607 204 182 121 1752393037
-0.214066 -0.856263 -3.34502 204 182 121 1752393037
-0.214642 -0.84068 -3.35401 204 182 121 1752393037
-0.21522 -0.825012 -3.36306 204 182 121 1752393037
-0.215803 -0.809259 -3.37215 204 182 121 1752393037
-0.216388 -0.793421 -3.3813 204 182 121 1752393037
-0.216976 -0.777498 -3.39049 204 182 121 1752393037
-0.217568 -0.761487 -3.39974 204 182 121 1752393037
-0.218162 -0.745388 -3.40903 204 182 121 1752393037
-0.21876 -0.729201 -3.41838 204 182 121 1752393037
-0.219362 -0.712926 -3.42777 204 182 121 1752393037
-0.219966 -0.696561 -3.43722 204 182 121 1752393037
-0.220574 -0.680105 -3.44672 204 182 121 1752393037
-0.221186 -0.663558 -3.45628 204 182 121 1752393037
-0.221801 -0.646919 -3.46588 204 182 121 1752393037
-0.222419 -0.630187 -3.47554 204 182 121 1752393037
