ply
format ascii 1.0
comment PCL generated
obj_info is_cyberware_data 0
obj_info is_mesh 0
obj_info is_warped 0
obj_info is_interlaced 0
obj_info num_cols 20201
obj_info num_rows 1
obj_info echo_rgb_offset_x 0
obj_info echo_rgb_offset_y 0
obj_info echo_rgb_offset_z 0
obj_info echo_rgb_frontfocus 0.0
obj_info echo_rgb_backfocus 0.0
obj_info echo_rgb_pixelsize 0.0
obj_info echo_rgb_centerpixel 0
obj_info echo_frames 1
obj_info echo_lgincr 0.0
element vertex 1017
property float x
property float y
property float z
property uchar red
property uchar green
property uchar blue
property uint label
end_header
0.776048 -0.11874 -3.18075 0 0 0 1752393037
0.778071 -0.102042 -3.18904 0 0 0 1752393037
0.780104 -0.085257 -3.19738 204 182 121 1752393037
0.782149 -0.068385 -3.20575 0 0 0 1752393037
0.784204 -0.051423 -3.21418 0 0 0 1752393037
0.786269 -0.034372 -3.22265 0 0 0 1752393037
0.788346 -0.017232 -3.23116 0 0 0 1752393037
0.790434 0 -3.23971 0 0 0 1752393037
0.792533 0.017323 -3.24832 0 0 0 1752393037
0.794643 0.034738 -3.25696 0 0 0 1752393037
0.796764 0.052247 -3.26566 0 0 0 1752393037
0.798896 0.069849 -3.2744 0 0 0 1752393037
0.801041 0.087545 -3.28319 0 0 0 1752393037
0.803196 0.105337 -3.29202 0 0 0 1752393037
0.805363 0.123225 -3.3009 0 0 0 1752393037
0.807542 0.14121 -3.30984 0 0 0 1752393037
0.809733 0.159292 -3.31881 204 182 121 1752393037
0.811936 0.177472 -3.32784 204 182 121 1752393037
0.814151 0.195752 -3.33692 0 0 0 1752393037
0.816377 0.214132 -3.34605 0 0 0 1752393037
0.818616 0.232612 -3.35523 204 182 121 1752393037
0.820868 0.251194 -3.36445 204 182 121 1752393037
0.823132 0.269879 -3.37373 204 182 121 1752393037
0.825408 0.288667 -3.38306 204 182 121 1752393037
0.827697 0.307559 -3.39244 204 182 121 1752393037
0.829998 0.326557 -3.40188 204 182 121 1752393037
0.832313 0.34566 -3.41136 204 182 121 1752393037
0.83464 0.36487 -3.4209 204 182 121 1752393037
0.836981 0.384188 -3.43049 204 182 121 1752393037
0.839334 0.403614 -3.44014 204 182 121 1752393037
0.841701 0.42315 -3.44984 204 182 121 1752393037
0.844082 0.442797 -3.4596 204 182 121 1752393037
0.846475 0.462555 -3.46941 204 182 121 1752393037
0.848883 0.482425 -3.47928 204 182 121 1752393037
0.851304 0.502409 -3.4892 204 182 121 1752393037
0.853739 0.522507 -3.49918 204 182 121 1752393037
0.856188 0.54272 -3.50922 204 182 121 1752393037
0.858651 0.56305 -3.51931 204 182 121 1752393037
0.861128 0.583497 -3.52947 204 182 121 1752393037
0.86362 0.604062 -3.53968 204 182 121 1752393037
0.866126 0.624747 -3.54995 204 182 121 1752393037
0.868647 0.645552 -3.56028 204 182 121 1752393037
0.871182 0.666478 -3.57067 204 182 121 1752393037
0.873732 0.687527 -3.58113 204 182 121 1752393037
0.876298 0.7087 -3.59164 204 182 121 1752393037
0.878878 0.729997 -3.60222 204 182 121 1752393037
0.881473 0.75142 -3.61285 204 182 121 1752393037
0.884084 0.77297 -3.62355 204 182 121 1752393037
0.668985 -1.07901 -2.69771 0 0 0 1752393037
0.670464 -1.06697 -2.70368 0 0 0 1752393037
0.671949 -1.05489 -2.70966 0 0 0 1752393037
0.67344 -1.04275 -2.71568 0 0 0 1752393037
0.674938 -1.03055 -2.72172 0 0 0 1752393037
0.676444 -1.0183 -2.72779 0 0 0 1752393037
0.677955 -1.006 -2.73389 204 182 121 1752393037
0.679474 -0.993639 -2.74001 0 0 0 1752393037
0.680999 -0.981224 -2.74616 204 182 121 1752393037
0.682531 -0.968754 -2.75234 0 0 0 1752393037
0.68407 -0.956227 -2.75854 204 182 121 1752393037
0.685616 -0.943644 -2.76478 0 0 0 1752393037
0.687169 -0.931003 -2.77104 0 0 0 1752393037
0.688729 -0.918306 -2.77733 0 0 0 1752393037
0.690296 -0.90555 -2.78365 204 182 121 1752393037
0.691871 -0.892736 -2.79 0 0 0 1752393037
0.693452 -0.879864 -2.79638 204 182 121 1752393037
0.695041 -0.866933 -2.80278 204 182 121 1752393037
0.696637 -0.853942 -2.80922 0 0 0 1752393037
0.69824 -0.840892 -2.81569 0 0 0 1752393037
0.699851 -0.827781 -2.82218 0 0 0 1752393037
0.701469 -0.81461 -2.82871 0 0 0 1752393037
0.703095 -0.801377 -2.83526 204 182 121 1752393037
0.704728 -0.788083 -2.84185 204 182 121 1752393037
0.706369 -0.774728 -2.84847 0 0 0 1752393037
0.708018 -0.76131 -2.85511 204 182 121 1752393037
0.709674 -0.747829 -2.86179 0 0 0 1752393037
0.711338 -0.734285 -2.8685 204 182 121 1752393037
0.71301 -0.720677 -2.87525 0 0 0 1752393037
0.71469 -0.707005 -2.88202 204 182 121 1752393037
0.716377 -0.693269 -2.88882 0 0 0 1752393037
0.718073 -0.679467 -2.89566 0 0 0 1752393037
0.719777 -0.6656 -2.90253 0 0 0 1752393037
0.721489 -0.651667 -2.90944 0 0 0 1752393037
0.723209 -0.637668 -2.91637 0 0 0 1752393037
0.724937 -0.623602 -2.92334 0 0 0 1752393037
0.726673 -0.609468 -2.93034 0 0 0 1752393037
0.728418 -0.595267 -2.93738 0 0 0 1752393037
0.730171 -0.580997 -2.94445 0 0 0 1752393037
0.731933 -0.566658 -2.95155 0 0 0 1752393037
0.733703 -0.55225 -2.95869 0 0 0 1752393037
0.735482 -0.537772 -2.96586 0 0 0 1752393037
0.737269 -0.523223 -2.97307 0 0 0 1752393037
0.739066 -0.508604 -2.98032 0 0 0 1752393037
0.74087 -0.493914 -2.98759 0 0 0 1752393037
0.742684 -0.479151 -2.99491 0 0 0 1752393037
0.744507 -0.464316 -3.00226 0 0 0 1752393037
0.746339 -0.449408 -3.00964 0 0 0 1752393037
0.748179 -0.434427 -3.01707 0 0 0 1752393037
0.750029 -0.419371 -3.02453 0 0 0 1752393037
0.751888 -0.404241 -3.03202 0 0 0 1752393037
0.753756 -0.389035 -3.03956 204 182 121 1752393037
0.755633 -0.373754 -3.04713 0 0 0 1752393037
0.75752 -0.358397 -3.05473 0 0 0 1752393037
0.759417 -0.342962 -3.06238 0 0 0 1752393037
0.761322 -0.32745 -3.07007 0 0 0 1752393037
0.763238 -0.311861 -3.07779 0 0 0 1752393037
0.765163 -0.296192 -3.08555 0 0 0 1752393037
0.767098 -0.280444 -3.09336 0 0 0 1752393037
0.769042 -0.264617 -3.1012 0 0 0 1752393037
0.770997 -0.248709 -3.10908 0 0 0 1752393037
0.772961 -0.232719 -3.117 0 0 0 1752393037
0.774936 -0.216649 -3.12496 0 0 0 1752393037
0.77692 -0.200496 -3.13297 0 0 0 1752393037
0.778915 -0.184259 -3.14101 0 0 0 1752393037
0.78092 -0.16794 -3.1491 0 0 0 1752393037
0.782936 -0.151536 -3.15722 0 0 0 1752393037
0.784961 -0.135047 -3.16539 0 0 0 1752393037
0.786998 -0.118473 -3.1736 204 182 121 1752393037
0.789045 -0.101812 -3.18186 0 0 0 1752393037
0.791102 -0.085065 -3.19016 0 0 0 1752393037
0.793171 -0.06823 -3.1985 0 0 0 1752393037
0.79525 -0.051306 -3.20688 0 0 0 1752393037
0.79734 -0.034294 -3.21531 0 0 0 1752393037
0.799441 -0.017192 -3.22378 0 0 0 1752393037
0.801553 0 -3.2323 0 0 0 1752393037
0.803677 0.017283 -3.24086 0 0 0 1752393037
0.805812 0.034659 -3.24947 0 0 0 1752393037
0.807958 0.052126 -3.25813 0 0 0 1752393037
0.810115 0.069687 -3.26683 0 0 0 1752393037
0.812284 0.087342 -3.27557 0 0 0 1752393037
0.814465 0.105092 -3.28437 0 0 0 1752393037
0.816658 0.122938 -3.29321 0 0 0 1752393037
0.818862 0.140879 -3.3021 204 182 121 1752393037
0.821078 0.158918 -3.31104 0 0 0 1752393037
0.823307 0.177055 -3.32002 0 0 0 1752393037
0.825547 0.195291 -3.32906 0 0 0 1752393037
0.8278 0.213626 -3.33814 0 0 0 1752393037
0.830065 0.232061 -3.34727 204 182 121 1752393037
0.832342 0.250598 -3.35646 204 182 121 1752393037
0.834632 0.269236 -3.36569 204 182 121 1752393037
0.836935 0.287978 -3.37498 204 182 121 1752393037
0.83925 0.306823 -3.38431 204 182 121 1752393037
0.841578 0.325772 -3.3937 204 182 121 1752393037
0.843919 0.344827 -3.40314 204 182 121 1752393037
0.846273 0.363989 -3.41264 204 182 121 1752393037
0.848641 0.383257 -3.42218 204 182 121 1752393037
0.851022 0.402634 -3.43178 204 182 121 1752393037
0.853415 0.422119 -3.44144 204 182 121 1752393037
0.855823 0.441715 -3.45114 204 182 121 1752393037
0.858244 0.461422 -3.46091 204 182 121 1752393037
0.860679 0.48124 -3.47073 204 182 121 1752393037
0.863128 0.501171 -3.4806 204 182 121 1752393037
0.865591 0.521216 -3.49053 204 182 121 1752393037
0.868067 0.541375 -3.50052 204 182 121 1752393037
0.870558 0.561651 -3.51057 204 182 121 1752393037
0.873064 0.582043 -3.52067 204 182 121 1752393037
0.875584 0.602552 -3.53083 204 182 121 1752393037
0.878118 0.623181 -3.54105 204 182 121 1752393037
0.880667 0.643929 -3.55133 204 182 121 1752393037
0.883231 0.664798 -3.56167 204 182 121 1752393037
0.88581 0.685789 -3.57207 204 182 121 1752393037
0.888404 0.706902 -3.58253 204 182 121 1752393037
0.891014 0.72814 -3.59305 204 182 121 1752393037
0.893638 0.749503 -3.60364 204 182 121 1752393037
0.896278 0.770992 -3.61428 204 182 121 1752393037
0.898934 0.792609 -3.62499 204 182 121 1752393037
0.678479 -1.07695 -2.69257 0 0 0 1752393037
0.679976 -1.06494 -2.69851 0 0 0 1752393037
0.681479 -1.05287 -2.70448 0 0 0 1752393037
0.682989 -1.04075 -2.71047 204 182 121 1752393037
0.684506 -1.02857 -2.71649 204 182 121 1752393037
0.686029 -1.01634 -2.72253 0 0 0 1752393037
0.687559 -1.00406 -2.72861 0 0 0 1752393037
0.689096 -0.991715 -2.7347 0 0 0 1752393037
0.69064 -0.97932 -2.74083 0 0 0 1752393037
0.692191 -0.96687 -2.74699 204 182 121 1752393037
0.693749 -0.954363 -2.75317 0 0 0 1752393037
0.695314 -0.9418 -2.75938 204 182 121 1752393037
0.696885 -0.929181 -2.76562 0 0 0 1752393037
0.698465 -0.916504 -2.77188 204 182 121 1752393037
0.700051 -0.903769 -2.77818 0 0 0 1752393037
0.701644 -0.890976 -2.7845 0 0 0 1752393037
0.703245 -0.878126 -2.79085 0 0 0 1752393037
0.704853 -0.865216 -2.79724 0 0 0 1752393037
0.706468 -0.852247 -2.80364 204 182 121 1752393037
0.708091 -0.839219 -2.81009 0 0 0 1752393037
0.709721 -0.82613 -2.81656 0 0 0 1752393037
0.711359 -0.812982 -2.82305 0 0 0 1752393037
0.713004 -0.799772 -2.82958 0 0 0 1752393037
0.714657 -0.786501 -2.83614 204 182 121 1752393037
0.716318 -0.773169 -2.84274 0 0 0 1752393037
0.717986 -0.759774 -2.84936 204 182 121 1752393037
0.719663 -0.746317 -2.85601 0 0 0 1752393037
0.721347 -0.732797 -2.86269 0 0 0 1752393037
0.723038 -0.719213 -2.86941 0 0 0 1752393037
0.724738 -0.705566 -2.87615 0 0 0 1752393037
0.726446 -0.691854 -2.88293 0 0 0 1752393037
0.728162 -0.678077 -2.88974 0 0 0 1752393037
0.729886 -0.664235 -2.89658 0 0 0 1752393037
0.731619 -0.650328 -2.90346 0 0 0 1752393037
0.733359 -0.636354 -2.91036 0 0 0 1752393037
0.735108 -0.622314 -2.9173 204 182 121 1752393037
0.736865 -0.608206 -2.92428 0 0 0 1752393037
0.738631 -0.594031 -2.93128 0 0 0 1752393037
0.740405 -0.579788 -2.93832 0 0 0 1752393037
0.742188 -0.565476 -2.9454 0 0 0 1752393037
0.743979 -0.551095 -2.95251 0 0 0 1752393037
0.745779 -0.536645 -2.95965 0 0 0 1752393037
0.747588 -0.522125 -2.96683 0 0 0 1752393037
0.749405 -0.507533 -2.97404 0 0 0 1752393037
0.751231 -0.492871 -2.98129 0 0 0 1752393037
0.753066 -0.478137 -2.98857 204 182 121 1752393037
0.754911 -0.463331 -2.99589 0 0 0 1752393037
0.756764 -0.448453 -3.00325 0 0 0 1752393037
0.758626 -0.433501 -3.01064 0 0 0 1752393037
0.760498 -0.418475 -3.01806 0 0 0 1752393037
0.762379 -0.403375 -3.02553 0 0 0 1752393037
0.764269 -0.3882 -3.03303 0 0 0 1752393037
0.766168 -0.37295 -3.04057 0 0 0 1752393037
0.768077 -0.357623 -3.04814 0 0 0 1752393037
0.769996 -0.34222 -3.05576 204 182 121 1752393037
0.771924 -0.32674 -3.06341 204 182 121 1752393037
0.773862 -0.311183 -3.0711 0 0 0 1752393037
0.77581 -0.295547 -3.07883 0 0 0 1752393037
0.777767 -0.279831 -3.0866 0 0 0 1752393037
0.779734 -0.264037 -3.0944 0 0 0 1752393037
0.781712 -0.248162 -3.10225 204 182 121 1752393037
0.783699 -0.232207 -3.11014 0 0 0 1752393037
0.785697 -0.21617 -3.11807 204 182 121 1752393037
0.787704 -0.200052 -3.12603 204 182 121 1752393037
0.789722 -0.183851 -3.13404 0 0 0 1752393037
0.791751 -0.167566 -3.14209 0 0 0 1752393037
0.793789 -0.151198 -3.15018 0 0 0 1752393037
0.795839 -0.134745 -3.15831 204 182 121 1752393037
0.797899 -0.118207 -3.16649 0 0 0 1752393037
0.799969 -0.101583 -3.17471 0 0 0 1752393037
0.802051 -0.084873 -3.18297 0 0 0 1752393037
0.804143 -0.068076 -3.19127 0 0 0 1752393037
0.806246 -0.05119 -3.19962 0 0 0 1752393037
0.80836 -0.034216 -3.20801 204 182 121 1752393037
0.810486 -0.017153 -3.21644 0 0 0 1752393037
0.812622 0 -3.22492 0 0 0 1752393037
0.81477 0.017244 -3.23344 0 0 0 1752393037
0.816929 0.034579 -3.24201 0 0 0 1752393037
0.8191 0.052006 -3.25063 0 0 0 1752393037
0.821282 0.069527 -3.25929 0 0 0 1752393037
0.823476 0.08714 -3.268 0 0 0 1752393037
0.825682 0.104849 -3.27675 0 0 0 1752393037
0.8279 0.122652 -3.28555 0 0 0 1752393037
0.830129 0.140551 -3.2944 0 0 0 1752393037
0.832371 0.158547 -3.30329 0 0 0 1752393037
0.834624 0.17664 -3.31224 0 0 0 1752393037
0.83689 0.194832 -3.32123 204 182 121 1752393037
0.839168 0.213122 -3.33027 204 182 121 1752393037
0.841459 0.231513 -3.33936 204 182 121 1752393037
0.843762 0.250004 -3.3485 204 182 121 1752393037
0.846078 0.268596 -3.35769 204 182 121 1752393037
0.848406 0.287291 -3.36693 204 182 121 1752393037
0.850748 0.306089 -3.37622 204 182 121 1752393037
0.853102 0.324991 -3.38557 204 182 121 1752393037
0.85547 0.343998 -3.39496 204 182 121 1752393037
0.857851 0.363111 -3.40441 204 182 121 1752393037
0.860245 0.382331 -3.41391 204 182 121 1752393037
0.862652 0.401658 -3.42347 204 182 121 1752393037
0.865073 0.421094 -3.43307 204 182 121 1752393037
0.867507 0.440639 -3.44273 204 182 121 1752393037
0.869955 0.460294 -3.45245 204 182 121 1752393037
0.872418 0.48006 -3.46222 204 182 121 1752393037
0.874894 0.499939 -3.47205 204 182 121 1752393037
0.877384 0.519931 -3.48193 204 182 121 1752393037
0.879888 0.540037 -3.49187 204 182 121 1752393037
0.882407 0.560258 -3.50186 204 182 121 1752393037
0.88494 0.580596 -3.51192 204 182 121 1752393037
0.887488 0.60105 -3.52203 204 182 121 1752393037
0.89005 0.621622 -3.5322 204 182 121 1752393037
0.892627 0.642314 -3.54242 204 182 121 1752393037
0.89522 0.663126 -3.55271 204 182 121 1752393037
0.897827 0.684059 -3.56306 204 182 121 1752393037
0.90045 0.705114 -3.57347 204 182 121 1752393037
0.903088 0.726293 -3.58394 204 182 121 1752393037
0.905741 0.747596 -3.59447 204 182 121 1752393037
0.90841 0.769025 -3.60506 204 182 121 1752393037
0.911095 0.79058 -3.61572 204 182 121 1752393037
0.687938 -1.0749 -2.68745 0 0 0 1752393037
0.689452 -1.06291 -2.69337 0 0 0 1752393037
0.690973 -1.05086 -2.69931 0 0 0 1752393037
0.692502 -1.03875 -2.70528 0 0 0 1752393037
0.694036 -1.02659 -2.71127 0 0 0 1752393037
0.695578 -1.01438 -2.71729 0 0 0 1752393037
0.697126 -1.00212 -2.72334 0 0 0 1752393037
0.698682 -0.989799 -2.72942 204 182 121 1752393037
0.700244 -0.977424 -2.73552 0 0 0 1752393037
0.701813 -0.964993 -2.74165 0 0 0 1752393037
0.70339 -0.952507 -2.74781 204 182 121 1752393037
0.704973 -0.939964 -2.754 0 0 0 1752393037
0.706564 -0.927365 -2.76021 0 0 0 1752393037
0.708162 -0.914709 -2.76645 204 182 121 1752393037
0.709767 -0.901995 -2.77272 0 0 0 1752393037
0.711379 -0.889224 -2.77902 204 182 121 1752393037
0.712999 -0.876394 -2.78535 0 0 0 1752393037
0.714626 -0.863506 -2.79171 0 0 0 1752393037
0.71626 -0.850559 -2.79809 0 0 0 1752393037
0.717902 -0.837553 -2.80451 0 0 0 1752393037
0.719552 -0.824487 -2.81095 0 0 0 1752393037
0.721209 -0.81136 -2.81742 204 182 121 1752393037
0.722874 -0.798173 -2.82393 0 0 0 1752393037
0.724546 -0.784925 -2.83046 0 0 0 1752393037
0.726227 -0.771616 -2.83702 0 0 0 1752393037
0.727915 -0.758245 -2.84362 204 182 121 1752393037
0.729611 -0.744811 -2.85024 0 0 0 1752393037
0.731315 -0.731315 -2.8569 204 182 121 1752393037
0.733026 -0.717755 -2.86359 0 0 0 1752393037
0.734746 -0.704132 -2.87031 204 182 121 1752393037
0.736474 -0.690445 -2.87706 0 0 0 1752393037
0.73821 -0.676693 -2.88384 0 0 0 1752393037
0.739955 -0.662876 -2.89066 0 0 0 1752393037
0.741707 -0.648994 -2.8975 0 0 0 1752393037
0.743468 -0.635046 -2.90438 0 0 0 1752393037
0.745237 -0.621031 -2.91129 0 0 0 1752393037
0.747015 -0.60695 -2.91824 0 0 0 1752393037
0.748801 -0.592801 -2.92521 0 0 0 1752393037
0.750596 -0.578585 -2.93222 0 0 0 1752393037
0.7524 -0.5643 -2.93927 0 0 0 1752393037
0.754212 -0.549946 -2.94635 0 0 0 1752393037
0.756033 -0.535523 -2.95346 0 0 0 1752393037
0.757862 -0.52103 -2.96061 0 0 0 1752393037
0.759701 -0.506467 -2.96779 0 0 0 1752393037
0.761548 -0.491833 -2.97501 204 182 121 1752393037
0.763405 -0.477128 -2.98226 0 0 0 1752393037
0.76527 -0.462351 -2.98955 0 0 0 1752393037
0.767145 -0.447501 -2.99687 0 0 0 1752393037
0.769029 -0.432579 -3.00423 0 0 0 1752393037
0.770922 -0.417583 -3.01163 0 0 0 1752393037
0.772825 -0.402513 -3.01906 0 0 0 1752393037
0.774737 -0.387368 -3.02653 0 0 0 1752393037
0.776658 -0.372149 -3.03404 0 0 0 1752393037
0.778589 -0.356853 -3.04158 0 0 0 1752393037
0.78053 -0.341482 -3.04916 0 0 0 1752393037
0.78248 -0.326033 -3.05678 0 0 0 1752393037
0.78444 -0.310508 -3.06444 0 0 0 1752393037
0.78641 -0.294904 -3.07213 0 0 0 1752393037
0.78839 -0.279221 -3.07987 204 182 121 1752393037
0.79038 -0.26346 -3.08764 0 0 0 1752393037
0.79238 -0.247619 -3.09545 0 0 0 1752393037
0.79439 -0.231697 -3.10331 0 0 0 1752393037
0.79641 -0.215694 -3.1112 204 182 121 1752393037
0.798441 -0.19961 -3.11913 204 182 121 1752393037
0.800482 -0.183444 -3.1271 0 0 0 1752393037
0.802533 -0.167194 -3.13512 0 0 0 1752393037
0.804595 -0.150862 -3.14317 0 0 0 1752393037
0.806667 -0.134445 -3.15127 0 0 0 1752393037
0.808751 -0.117943 -3.15941 0 0 0 1752393037
0.810845 -0.101356 -3.16759 0 0 0 1752393037
0.81295 -0.084682 -3.17581 0 0 0 1752393037
0.815066 -0.067922 -3.18408 0 0 0 1752393037
0.817193 -0.051075 -3.19239 0 0 0 1752393037
0.819331 -0.034139 -3.20074 0 0 0 1752393037
0.82148 -0.017114 -3.20914 0 0 0 1752393037
0.823641 0 -3.21758 0 0 0 1752393037
0.825812 0.017204 -3.22606 0 0 0 1752393037
0.827996 0.0345 -3.23459 0 0 0 1752393037
0.830191 0.051887 -3.24317 0 0 0 1752393037
0.832398 0.069366 -3.25179 0 0 0 1752393037
0.834616 0.086939 -3.26045 0 0 0 1752393037
0.836847 0.104606 -3.26917 0 0 0 1752393037
0.839089 0.122367 -3.27793 0 0 0 1752393037
0.841343 0.140224 -3.28673 0 0 0 1752393037
0.84361 0.158177 -3.29559 204 182 121 1752393037
0.845889 0.176227 -3.30449 0 0 0 1752393037
0.84818 0.194375 -3.31344 204 182 121 1752393037
0.850483 0.212621 -3.32244 0 0 0 1752393037
0.852799 0.230966 -3.33149 204 182 121 1752393037
0.855128 0.249412 -3.34058 204 182 121 1752393037
0.85747 0.267959 -3.34973 204 182 121 1752393037
0.859824 0.286608 -3.35893 204 182 121 1752393037
0.862191 0.305359 -3.36818 204 182 121 1752393037
0.864572 0.324214 -3.37747 204 182 121 1752393037
0.866965 0.343174 -3.38683 204 182 121 1752393037
0.869372 0.362238 -3.39623 204 182 121 1752393037
0.871792 0.381409 -3.40568 204 182 121 1752393037
0.874226 0.400687 -3.41519 204 182 121 1752393037
0.876673 0.420073 -3.42475 204 182 121 1752393037
0.879135 0.439567 -3.43437 204 182 121 1752393037
0.88161 0.459172 -3.44403 204 182 121 1752393037
0.884098 0.478887 -3.45376 204 182 121 1752393037
0.886602 0.498713 -3.46354 204 182 121 1752393037
0.889119 0.518653 -3.47337 204 182 121 1752393037
0.89165 0.538705 -3.48326 204 182 121 1752393037
0.894196 0.558873 -3.4932 204 182 121 1752393037
0.896757 0.579156 -3.50321 204 182 121 1752393037
0.899332 0.599555 -3.51327 204 182 121 1752393037
0.901923 0.620072 -3.52339 204 182 121 1752393037
0.904528 0.640707 -3.53356 204 182 121 1752393037
0.907148 0.661462 -3.5438 204 182 121 1752393037
0.909784 0.682338 -3.5541 204 182 121 1752393037
0.912434 0.703335 -3.56445 204 182 121 1752393037
0.915101 0.724455 -3.57487 204 182 121 1752393037
0.917783 0.745698 -3.58534 204 182 121 1752393037
0.92048 0.767067 -3.59588 204 182 121 1752393037
0.923194 0.788561 -3.60648 204 182 121 1752393037
0.69736 -1.07286 -2.68234 0 0 0 1752393037
0.698892 -1.06088 -2.68824 0 0 0 1752393037
0.700432 -1.04885 -2.69416 0 0 0 1752393037
0.701977 -1.03677 -2.70011 0 0 0 1752393037
0.70353 -1.02463 -2.70608 0 0 0 1752393037
0.70509 -1.01244 -2.71208 0 0 0 1752393037
0.706657 -1.00019 -2.7181 204 182 121 1752393037
0.70823 -0.98789 -2.72416 0 0 0 1752393037
0.709811 -0.975535 -2.73024 0 0 0 1752393037
0.711398 -0.963124 -2.73634 0 0 0 1752393037
0.712993 -0.950658 -2.74248 0 0 0 1752393037
0.714595 -0.938135 -2.74864 0 0 0 1752393037
0.716204 -0.925556 -2.75483 0 0 0 1752393037
0.717821 -0.912921 -2.76105 204 182 121 1752393037
0.719445 -0.900228 -2.76729 0 0 0 1752393037
0.721076 -0.887478 -2.77357 0 0 0 1752393037
0.722714 -0.87467 -2.77987 0 0 0 1752393037
0.72436 -0.861803 -2.7862 0 0 0 1752393037
0.726014 -0.848878 -2.79256 0 0 0 1752393037
0.727675 -0.835893 -2.79895 0 0 0 1752393037
0.729344 -0.822849 -2.80537 0 0 0 1752393037
0.73102 -0.809745 -2.81182 0 0 0 1752393037
0.732704 -0.796581 -2.81829 0 0 0 1752393037
0.734396 -0.783356 -2.8248 204 182 121 1752393037
0.736096 -0.770069 -2.83134 204 182 121 1752393037
0.737803 -0.756721 -2.83791 204 182 121 1752393037
0.739519 -0.743311 -2.84451 0 0 0 1752393037
0.741242 -0.729838 -2.85114 0 0 0 1752393037
0.742974 -0.716303 -2.8578 0 0 0 1752393037
0.744713 -0.702704 -2.86449 0 0 0 1752393037
0.746461 -0.689041 -2.87121 0 0 0 1752393037
0.748217 -0.675314 -2.87796 0 0 0 1752393037
0.749982 -0.661522 -2.88475 0 0 0 1752393037
0.751754 -0.647665 -2.89157 204 182 121 1752393037
0.753536 -0.633743 -2.89842 0 0 0 1752393037
0.755325 -0.619754 -2.9053 0 0 0 1752393037
0.757123 -0.605699 -2.91222 0 0 0 1752393037
0.75893 -0.591576 -2.91917 0 0 0 1752393037
0.760745 -0.577386 -2.92615 204 182 121 1752393037
0.762569 -0.563128 -2.93317 0 0 0 1752393037
0.764402 -0.548801 -2.94022 0 0 0 1752393037
0.766244 -0.534406 -2.9473 0 0 0 1752393037
0.768094 -0.519941 -2.95442 0 0 0 1752393037
0.769953 -0.505405 -2.96157 204 182 121 1752393037
0.771822 -0.4908 -2.96876 204 182 121 1752393037
0.7737 -0.476123 -2.97598 0 0 0 1752393037
0.775586 -0.461374 -2.98324 0 0 0 1752393037
0.777482 -0.446554 -2.99053 0 0 0 1752393037
0.779387 -0.431661 -2.99786 0 0 0 1752393037
0.781302 -0.416694 -3.00522 0 0 0 1752393037
0.783226 -0.401654 -3.01262 0 0 0 1752393037
0.78516 -0.38654 -3.02006 0 0 0 1752393037
0.787103 -0.371351 -3.02753 0 0 0 1752393037
0.789056 -0.356087 -3.03505 0 0 0 1752393037
0.791018 -0.340746 -3.04259 0 0 0 1752393037
0.79299 -0.325329 -3.05018 0 0 0 1752393037
0.794972 -0.309835 -3.0578 0 0 0 1752393037
0.796964 -0.294264 -3.06547 0 0 0 1752393037
0.798966 -0.278614 -3.07317 0 0 0 1752393037
0.800979 -0.262885 -3.08091 0 0 0 1752393037
0.803001 -0.247077 -3.08869 0 0 0 1752393037
0.805033 -0.231189 -3.0965 0 0 0 1752393037
0.807076 -0.21522 -3.10436 204 182 121 1752393037
0.80913 -0.19917 -3.11226 204 182 121 1752393037
0.811193 -0.183038 -3.1202 204 182 121 1752393037
0.813268 -0.166824 -3.12818 204 182 121 1752393037
0.815352 -0.150527 -3.13619 204 182 121 1752393037
0.817448 -0.134145 -3.14425 0 0 0 1752393037
0.819554 -0.11768 -3.15236 0 0 0 1752393037
0.821672 -0.101129 -3.1605 0 0 0 1752393037
0.8238 -0.084492 -3.16869 0 0 0 1752393037
0.825939 -0.067769 -3.17692 0 0 0 1752393037
0.82809 -0.050959 -3.18519 0 0 0 1752393037
0.830251 -0.034062 -3.1935 0 0 0 1752393037
0.832425 -0.017075 -3.20186 204 182 121 1752393037
0.834609 0 -3.21026 0 0 0 1752393037
0.836805 0.017165 -3.21871 0 0 0 1752393037
0.839012 0.034421 -3.2272 204 182 121 1752393037
0.841232 0.051768 -3.23574 0 0 0 1752393037
0.843463 0.069207 -3.24432 0 0 0 1752393037
0.845705 0.086739 -3.25294 0 0 0 1752393037
0.84796 0.104364 -3.26162 0 0 0 1752393037
0.850227 0.122084 -3.27034 0 0 0 1752393037
0.852506 0.139898 -3.2791 0 0 0 1752393037
0.854797 0.157809 -3.28792 0 0 0 1752393037
0.857101 0.175816 -3.29678 0 0 0 1752393037
0.859417 0.19392 -3.30569 0 0 0 1752393037
0.861745 0.212122 -3.31464 204 182 121 1752393037
0.864086 0.230423 -3.32365 0 0 0 1752393037
0.86644 0.248824 -3.3327 204 182 121 1752393037
0.868807 0.267325 -3.3418 204 182 121 1752393037
0.871187 0.285928 -3.35096 204 182 121 1752393037
0.87358 0.304633 -3.36016 204 182 121 1752393037
0.875986 0.323441 -3.36942 204 182 121 1752393037
0.878405 0.342353 -3.37872 204 182 121 1752393037
0.880838 0.36137 -3.38808 204 182 121 1752393037
0.883285 0.380492 -3.39749 204 182 121 1752393037
0.885744 0.399721 -3.40695 204 182 121 1752393037
0.888218 0.419057 -3.41647 204 182 121 1752393037
0.890706 0.438501 -3.42603 204 182 121 1752393037
0.893207 0.458055 -3.43566 204 182 121 1752393037
0.895723 0.477719 -3.44533 204 182 121 1752393037
0.898252 0.497494 -3.45506 204 182 121 1752393037
0.900796 0.517381 -3.46485 204 182 121 1752393037
0.903355 0.53738 -3.47469 204 182 121 1752393037
0.905928 0.557494 -3.48459 204 182 121 1752393037
0.908516 0.577723 -3.49454 204 182 121 1752393037
0.911119 0.598068 -3.50455 204 182 121 1752393037
0.913736 0.618529 -3.51462 204 182 121 1752393037
0.916369 0.639108 -3.52475 204 182 121 1752393037
0.919017 0.659807 -3.53493 204 182 121 1752393037
0.92168 0.680625 -3.54518 204 182 121 1752393037
0.924359 0.701564 -3.55548 204 182 121 1752393037
0.927053 0.722626 -3.56584 204 182 121 1752393037
0.929763 0.74381 -3.57627 204 182 121 1752393037
0.932489 0.765119 -3.58675 204 182 121 1752393037
0.935231 0.786553 -3.5973 204 182 121 1752393037
0.706747 -1.07083 -2.67726 0 0 0 1752393037
0.708297 -1.05887 -2.68313 0 0 0 1752393037
0.709854 -1.04685 -2.68903 0 0 0 1752393037
0.711417 -1.03479 -2.69496 0 0 0 1752393037
0.712988 -1.02267 -2.70091 0 0 0 1752393037
0.714566 -1.0105 -2.70688 204 182 121 1752393037
0.71615 -0.99827 -2.71288 0 0 0 1752393037
0.717742 -0.985989 -2.71891 0 0 0 1752393037
0.719341 -0.973653 -2.72497 204 182 121 1752393037
0.720946 -0.961262 -2.73105 0 0 0 1752393037
0.72256 -0.948816 -2.73716 0 0 0 1752393037
0.72418 -0.936313 -2.7433 0 0 0 1752393037
0.725807 -0.923755 -2.74947 0 0 0 1752393037
0.727442 -0.91114 -2.75566 204 182 121 1752393037
0.729085 -0.898468 -2.76188 0 0 0 1752393037
0.730735 -0.885739 -2.76813 0 0 0 1752393037
0.732392 -0.872952 -2.77441 0 0 0 1752393037
0.734056 -0.860106 -2.78071 0 0 0 1752393037
0.735729 -0.847203 -2.78705 204 182 121 1752393037
0.737409 -0.83424 -2.79341 0 0 0 1752393037
0.739096 -0.821218 -2.79981 0 0 0 1752393037
0.740792 -0.808136 -2.80623 0 0 0 1752393037
0.742495 -0.794995 -2.81268 0 0 0 1752393037
0.744206 -0.781792 -2.81916 204 182 121 1752393037
0.745925 -0.768529 -2.82568 0 0 0 1752393037
0.747652 -0.755204 -2.83222 0 0 0 1752393037
0.749387 -0.741817 -2.83879 0 0 0 1752393037
0.75113 -0.728368 -2.84539 0 0 0 1752393037
0.752881 -0.714857 -2.85203 204 182 121 1752393037
0.75464 -0.701282 -2.85869 0 0 0 1752393037
0.756408 -0.687644 -2.86539 0 0 0 1752393037
0.758184 -0.673941 -2.87211 0 0 0 1752393037
0.759968 -0.660174 -2.87887 0 0 0 1752393037
0.761761 -0.646342 -2.88566 204 182 121 1752393037
0.763562 -0.632445 -2.89249 204 182 121 1752393037
0.765371 -0.618482 -2.89934 0 0 0 1752393037
0.76719 -0.604452 -2.90623 0 0 0 1752393037
0.769017 -0.590356 -2.91315 204 182 121 1752393037
0.770852 -0.576192 -2.9201 0 0 0 1752393037
0.772697 -0.561961 -2.92709 0 0 0 1752393037
0.77455 -0.547661 -2.93411 0 0 0 1752393037
0.776412 -0.533293 -2.94116 0 0 0 1752393037
0.778283 -0.518855 -2.94825 0 0 0 1752393037
0.780163 -0.504348 -2.95537 0 0 0 1752393037
0.782053 -0.48977 -2.96253 0 0 0 1752393037
0.783951 -0.475122 -2.96972 0 0 0 1752393037
0.785859 -0.460402 -2.97695 0 0 0 1752393037
0.787776 -0.44561 -2.98421 0 0 0 1752393037
0.789702 -0.430747 -2.99151 0 0 0 1752393037
0.791638 -0.41581 -2.99884 0 0 0 1752393037
0.793583 -0.4008 -3.00621 0 0 0 1752393037
0.795538 -0.385716 -3.01362 0 0 0 1752393037
0.797503 -0.370557 -3.02106 204 182 121 1752393037
0.799477 -0.355323 -3.02854 0 0 0 1752393037
0.801461 -0.340014 -3.03606 0 0 0 1752393037
0.803455 -0.324628 -3.04361 0 0 0 1752393037
0.805459 -0.309166 -3.0512 0 0 0 1752393037
0.807473 -0.293627 -3.05883 204 182 121 1752393037
0.809497 -0.278009 -3.0665 204 182 121 1752393037
0.811531 -0.262313 -3.0742 0 0 0 1752393037
0.813576 -0.246538 -3.08195 0 0 0 1752393037
0.815631 -0.230683 -3.08973 204 182 121 1752393037
0.817696 -0.214748 -3.09755 204 182 121 1752393037
0.819771 -0.198732 -3.10542 0 0 0 1752393037
0.821858 -0.182635 -3.11332 0 0 0 1752393037
0.823955 -0.166455 -3.12126 0 0 0 1752393037
0.826062 -0.150193 -3.12925 0 0 0 1752393037
0.828181 -0.133847 -3.13727 0 0 0 1752393037
0.83031 -0.117418 -3.14534 0 0 0 1752393037
0.83245 -0.100903 -3.15345 0 0 0 1752393037
0.834602 -0.084303 -3.1616 0 0 0 1752393037
0.836764 -0.067617 -3.16979 0 0 0 1752393037
0.838938 -0.050845 -3.17802 0 0 0 1752393037
0.841123 -0.033985 -3.1863 0 0 0 1752393037
0.84332 -0.017037 -3.19462 0 0 0 1752393037
0.845528 0 -3.20299 0 0 0 1752393037
0.847747 0.017126 -3.21139 204 182 121 1752393037
0.849979 0.034343 -3.21985 0 0 0 1752393037
0.852222 0.05165 -3.22834 0 0 0 1752393037
0.854476 0.069049 -3.23688 0 0 0 1752393037
0.856743 0.08654 -3.24547 0 0 0 1752393037
0.859022 0.104124 -3.2541 0 0 0 1752393037
0.861313 0.121802 -3.26278 0 0 0 1752393037
0.863617 0.139574 -3.27151 0 0 0 1752393037
0.865932 0.157442 -3.28028 0 0 0 1752393037
0.868261 0.175406 -3.2891 204 182 121 1752393037
0.870601 0.193467 -3.29797 0 0 0 1752393037
0.872954 0.211625 -3.30688 0 0 0 1752393037
0.875321 0.229882 -3.31585 0 0 0 1752393037
0.8777 0.248238 -3.32486 204 182 121 1752393037
0.880092 0.266694 -3.33392 204 182 121 1752393037
0.882497 0.285251 -3.34303 204 182 121 1752393037
0.884915 0.30391 -3.35219 204 182 121 1752393037
0.887346 0.322671 -3.3614 204 182 121 1752393037
0.889791 0.341536 -3.37066 204 182 121 1752393037
0.89225 0.360505 -3.37998 204 182 121 1752393037
0.894722 0.379579 -3.38934 204 182 121 1752393037
0.897207 0.398759 -3.39876 204 182 121 1752393037
0.899707 0.418046 -3.40822 204 182 121 1752393037
0.902221 0.43744 -3.41775 204 182 121 1752393037
0.904748 0.456944 -3.42732 204 182 121 1752393037
0.90729 0.476556 -3.43695 204 182 121 1752393037
0.909846 0.49628 -3.44663 204 182 121 1752393037
0.912417 0.516114 -3.45637 204 182 121 1752393037
0.915002 0.536062 -3.46616 204 182 121 1752393037
0.917602 0.556122 -3.47601 204 182 121 1752393037
0.920217 0.576297 -3.48592 204 182 121 1752393037
0.922846 0.596587 -3.49588 204 182 121 1752393037
0.925491 0.616994 -3.5059 204 182 121 1752393037
0.928151 0.637518 -3.51597 204 182 121 1752393037
0.930826 0.65816 -3.52611 204 182 121 1752393037
0.933517 0.678921 -3.5363 204 182 121 1752393037
0.936223 0.699803 -3.54655 204 182 121 1752393037
0.938945 0.720807 -3.55686 204 182 121 1752393037
0.941683 0.741932 -3.56724 204 182 121 1752393037
0.944437 0.763181 -3.57767 204 182 121 1752393037
0.947207 0.784555 -3.58816 204 182 121 1752393037
0.949994 0.806055 -3.59872 204 182 121 1752393037
0.716098 -1.0688 -2.6722 0 0 0 1752393037
0.717665 -1.05686 -2.67805 0 0 0 1752393037
0.71924 -1.04487 -2.68392 0 0 0 1752393037
0.720821 -1.03282 -2.68982 0 0 0 1752393037
0.72241 -1.02072 -2.69575 0 0 0 1752393037
0.724005 -1.00856 -2.7017 0 0 0 1752393037
0.725607 -0.996357 -2.70768 0 0 0 1752393037
0.727217 -0.984095 -2.71369 204 182 121 1752393037
0.728834 -0.971778 -2.71972 204 182 121 1752393037
0.730458 -0.959407 -2.72578 0 0 0 1752393037
0.732089 -0.946981 -2.73187 204 182 121 1752393037
0.733727 -0.934499 -2.73798 204 182 121 1752393037
0.735373 -0.92196 -2.74413 204 182 121 1752393037
0.737027 -0.909366 -2.75029 0 0 0 1752393037
0.738687 -0.896715 -2.75649 0 0 0 1752393037
0.740355 -0.884007 -2.76272 204 182 121 1752393037
0.742031 -0.87124 -2.76897 0 0 0 1752393037
0.743715 -0.858417 -2.77525 0 0 0 1752393037
0.745405 -0.845535 -2.78156 0 0 0 1752393037
0.747104 -0.832594 -2.7879 204 182 121 1752393037
0.748811 -0.819594 -2.79427 0 0 0 1752393037
0.750525 -0.806534 -2.80067 204 182 121 1752393037
0.752247 -0.793415 -2.80709 0 0 0 1752393037
0.753977 -0.780235 -2.81355 204 182 121 1752393037
0.755715 -0.766995 -2.82003 0 0 0 1752393037
0.757461 -0.753693 -2.82655 0 0 0 1752393037
0.759216 -0.74033 -2.8331 0 0 0 1752393037
0.760978 -0.726904 -2.83967 0 0 0 1752393037
0.762748 -0.713416 -2.84628 204 182 121 1752393037
0.764527 -0.699866 -2.85292 0 0 0 1752393037
0.766314 -0.686251 -2.85959 0 0 0 1752393037
0.76811 -0.672574 -2.86629 204 182 121 1752393037
0.769914 -0.658831 -2.87302 0 0 0 1752393037
0.771726 -0.645025 -2.87978 0 0 0 1752393037
0.773547 -0.631153 -2.88657 204 182 121 1752393037
0.775376 -0.617215 -2.8934 204 182 121 1752393037
0.777215 -0.603211 -2.90026 0 0 0 1752393037
0.779062 -0.589141 -2.90715 204 182 121 1752393037
0.780917 -0.575004 -2.91408 204 182 121 1752393037
0.782782 -0.560799 -2.92104 0 0 0 1752393037
0.784656 -0.546526 -2.92803 0 0 0 1752393037
0.786538 -0.532185 -2.93505 0 0 0 1752393037
0.78843 -0.517775 -2.94211 204 182 121 1752393037
0.79033 -0.503295 -2.9492 0 0 0 1752393037
0.79224 -0.488745 -2.95633 204 182 121 1752393037
0.79416 -0.474125 -2.96349 0 0 0 1752393037
0.796088 -0.459434 -2.97069 0 0 0 1752393037
0.798026 -0.444671 -2.97792 0 0 0 1752393037
0.799973 -0.429836 -2.98519 0 0 0 1752393037
0.80193 -0.414929 -2.99249 0 0 0 1752393037
0.803896 -0.399948 -2.99983 0 0 0 1752393037
0.805873 -0.384894 -3.0072 0 0 0 1752393037
0.807858 -0.369766 -3.01461 0 0 0 1752393037
0.809854 -0.354563 -3.02206 0 0 0 1752393037
0.81186 -0.339285 -3.02954 0 0 0 1752393037
0.813875 -0.32393 -3.03707 0 0 0 1752393037
0.815901 -0.3085 -3.04462 0 0 0 1752393037
0.817936 -0.292992 -3.05222 0 0 0 1752393037
0.819982 -0.277407 -3.05985 204 182 121 1752393037
0.822038 -0.261744 -3.06753 204 182 121 1752393037
0.824105 -0.246001 -3.07524 204 182 121 1752393037
0.826182 -0.23018 -3.08299 0 0 0 1752393037
0.828269 -0.214279 -3.09078 0 0 0 1752393037
0.830367 -0.198297 -3.0986 0 0 0 1752393037
0.832475 -0.182233 -3.10647 0 0 0 1752393037
0.834595 -0.166088 -3.11438 204 182 121 1752393037
0.836725 -0.149861 -3.12233 0 0 0 1752393037
0.838866 -0.133551 -3.13032 0 0 0 1752393037
0.841018 -0.117157 -3.13835 0 0 0 1752393037
0.843181 -0.100678 -3.14642 0 0 0 1752393037
0.845355 -0.084115 -3.15454 0 0 0 1752393037
0.847541 -0.067466 -3.16269 0 0 0 1752393037
0.849737 -0.050731 -3.17089 0 0 0 1752393037
0.851946 -0.033908 -3.17913 0 0 0 1752393037
0.854165 -0.016998 -3.18741 204 182 121 1752393037
0.856397 0 -3.19574 0 0 0 1752393037
0.85864 0.017087 -3.20411 0 0 0 1752393037
0.860895 0.034264 -3.21252 0 0 0 1752393037
0.863161 0.051532 -3.22098 0 0 0 1752393037
0.86544 0.068891 -3.22948 0 0 0 1752393037
0.867731 0.086341 -3.23803 0 0 0 1752393037
0.870033 0.103885 -3.24662 0 0 0 1752393037
0.872348 0.121521 -3.25526 204 182 121 1752393037
0.874676 0.139252 -3.26395 204 182 121 1752393037
0.877016 0.157077 -3.27268 0 0 0 1752393037
0.879368 0.174999 -3.28146 0 0 0 1752393037
0.881734 0.193016 -3.29029 0 0 0 1752393037
0.884111 0.211131 -3.29916 204 182 121 1752393037
0.886502 0.229344 -3.30808 0 0 0 1752393037
0.888906 0.247655 -3.31705 204 182 121 1752393037
0.891323 0.266066 -3.32607 204 182 121 1752393037
0.893753 0.284578 -3.33514 204 182 121 1752393037
0.896196 0.303191 -3.34425 204 182 121 1752393037
0.898652 0.321905 -3.35342 204 182 121 1752393037
0.901123 0.340723 -3.36264 204 182 121 1752393037
0.903606 0.359644 -3.37191 204 182 121 1752393037
0.906104 0.37867 -3.38123 204 182 121 1752393037
0.908615 0.397802 -3.3906 204 182 121 1752393037
0.911141 0.417039 -3.40002 204 182 121 1752393037
0.91368 0.436384 -3.4095 204 182 121 1752393037
0.916233 0.455837 -3.41902 204 182 121 1752393037
0.918801 0.4754 -3.42861 204 182 121 1752393037
0.921384 0.495072 -3.43824 204 182 121 1752393037
0.92398 0.514855 -3.44793 204 182 121 1752393037
0.926592 0.53475 -3.45768 204 182 121 1752393037
0.929218 0.554757 -3.46748 204 182 121 1752393037
0.93186 0.574879 -3.47734 204 182 121 1752393037
0.934516 0.595115 -3.48725 204 182 121 1752393037
0.937187 0.615466 -3.49722 204 182 121 1752393037
0.939874 0.635935 -3.50724 204 182 121 1752393037
0.942577 0.656521 -3.51733 204 182 121 1752393037
0.945295 0.677226 -3.52747 204 182 121 1752393037
0.948028 0.698051 -3.53767 204 182 121 1752393037
0.950778 0.718996 -3.54793 204 182 121 1752393037
0.953543 0.740063 -3.55825 204 182 121 1752393037
0.956325 0.761253 -3.56863 204 182 121 1752393037
0.959123 0.782568 -3.57907 204 182 121 1752393037
0.961937 0.804007 -3.58957 204 182 121 1752393037
0.725413 -1.06678 -2.66715 0 0 0 1752393037
0.726998 -1.05486 -2.67298 0 0 0 1752393037
0.72859 -1.04288 -2.67883 0 0 0 1752393037
0.730189 -1.03085 -2.68471 0 0 0 1752393037
0.731795 -1.01877 -2.69062 0 0 0 1752393037
0.733408 -1.00664 -2.69655 0 0 0 1752393037
0.735029 -0.99445 -2.7025 0 0 0 1752393037
0.736656 -0.982208 -2.70849 204 182 121 1752393037
0.73829 -0.969911 -2.7145 0 0 0 1752393037
0.739932 -0.957559 -2.72053 204 182 121 1752393037
0.741581 -0.945153 -2.7266 0 0 0 1752393037
0.743238 -0.932691 -2.73269 0 0 0 1752393037
0.744902 -0.920173 -2.73881 204 182 121 1752393037
0.746573 -0.907599 -2.74495 0 0 0 1752393037
0.748252 -0.894968 -2.75112 0 0 0 1752393037
0.749939 -0.882281 -2.75732 0 0 0 1752393037
0.751633 -0.869536 -2.76355 0 0 0 1752393037
0.753335 -0.856734 -2.76981 204 182 121 1752393037
0.755044 -0.843873 -2.7761 204 182 121 1752393037
0.756761 -0.830954 -2.78241 0 0 0 1752393037
0.758486 -0.817976 -2.78875 0 0 0 1752393037
0.76022 -0.804938 -2.79513 0 0 0 1752393037
0.761961 -0.791841 -2.80153 0 0 0 1752393037
0.763709 -0.778684 -2.80796 0 0 0 1752393037
0.765466 -0.765466 -2.81441 0 0 0 1752393037
0.767232 -0.752188 -2.8209 204 182 121 1752393037
0.769005 -0.738848 -2.82743 0 0 0 1752393037
0.770786 -0.725446 -2.83398 204 182 121 1752393037
0.772576 -0.711982 -2.84056 204 182 121 1752393037
0.774374 -0.698455 -2.84717 0 0 0 1752393037
0.77618 -0.684865 -2.85381 0 0 0 1752393037
0.777995 -0.671212 -2.86048 0 0 0 1752393037
0.779819 -0.657494 -2.86719 204 182 121 1752393037
0.781651 -0.643712 -2.87392 0 0 0 1752393037
0.783491 -0.629866 -2.88069 0 0 0 1752393037
0.785341 -0.615953 -2.88749 204 182 121 1752393037
0.787199 -0.601975 -2.89432 0 0 0 1752393037
0.789065 -0.587931 -2.90118 0 0 0 1752393037
0.790941 -0.57382 -2.90808 0 0 0 1752393037
0.792826 -0.559642 -2.91501 0 0 0 1752393037
0.79472 -0.545396 -2.92197 0 0 0 1752393037
0.796622 -0.531081 -2.92897 0 0 0 1752393037
0.798534 -0.516699 -2.936 0 0 0 1752393037
0.800455 -0.502246 -2.94306 0 0 0 1752393037
0.802386 -0.487725 -2.95016 0 0 0 1752393037
0.804325 -0.473132 -2.95729 0 0 0 1752393037
0.806274 -0.45847 -2.96445 0 0 0 1752393037
0.808233 -0.443736 -2.97166 0 0 0 1752393037
0.810201 -0.42893 -2.97889 0 0 0 1752393037
0.812179 -0.414052 -2.98616 0 0 0 1752393037
0.814166 -0.399101 -2.99347 0 0 0 1752393037
0.816163 -0.384077 -3.00081 0 0 0 1752393037
0.81817 -0.368979 -3.00819 0 0 0 1752393037
0.820187 -0.353806 -3.01561 0 0 0 1752393037
0.822214 -0.338559 -3.02306 0 0 0 1752393037
0.824251 -0.323235 -3.03055 204 182 121 1752393037
0.826297 -0.307836 -3.03807 204 182 121 1752393037
0.828355 -0.29236 -3.04564 0 0 0 1752393037
0.830422 -0.276807 -3.05324 204 182 121 1752393037
0.8325 -0.261176 -3.06088 0 0 0 1752393037
0.834588 -0.245467 -3.06856 0 0 0 1752393037
0.836687 -0.229679 -3.07627 0 0 0 1752393037
0.838796 -0.213811 -3.08403 0 0 0 1752393037
0.840916 -0.197863 -3.09182 0 0 0 1752393037
0.843046 -0.181834 -3.09966 0 0 0 1752393037
0.845188 -0.165723 -3.10753 0 0 0 1752393037
0.84734 -0.149531 -3.11544 0 0 0 1752393037
0.849504 -0.133255 -3.1234 0 0 0 1752393037
0.851678 -0.116897 -3.13139 204 182 121 1752393037
0.853864 -0.100455 -3.13943 0 0 0 1752393037
0.856061 -0.083928 -3.14751 0 0 0 1752393037
0.858269 -0.067315 -3.15563 0 0 0 1752393037
0.860488 -0.050617 -3.16379 0 0 0 1752393037
0.86272 -0.033832 -3.17199 0 0 0 1752393037
0.864963 -0.01696 -3.18024 0 0 0 1752393037
0.867217 0 -3.18852 0 0 0 1752393037
0.869483 0.017049 -3.19686 0 0 0 1752393037
0.871761 0.034187 -3.20523 204 182 121 1752393037
0.874051 0.051415 -3.21365 204 182 121 1752393037
0.876353 0.068734 -3.22212 0 0 0 1752393037
0.878668 0.086144 -3.23063 204 182 121 1752393037
0.880994 0.103646 -3.23918 0 0 0 1752393037
0.883333 0.121242 -3.24778 0 0 0 1752393037
0.885684 0.138931 -3.25642 0 0 0 1752393037
0.888048 0.156714 -3.26512 0 0 0 1752393037
0.890425 0.174593 -3.27385 0 0 0 1752393037
0.892814 0.192568 -3.28264 0 0 0 1752393037
0.895216 0.210639 -3.29147 0 0 0 1752393037
0.897631 0.228808 -3.30035 0 0 0 1752393037
0.90006 0.247075 -3.30928 204 182 121 1752393037
0.902501 0.265441 -3.31825 204 182 121 1752393037
0.904956 0.283908 -3.32728 204 182 121 1752393037
0.907424 0.302475 -3.33635 204 182 121 1752393037
0.909905 0.321143 -3.34548 204 182 121 1752393037
0.9124 0.339914 -3.35465 204 182 121 1752393037
0.914909 0.358788 -3.36388 204 182 121 1752393037
0.917432 0.377766 -3.37315 204 182 121 1752393037
0.919968 0.396849 -3.38248 204 182 121 1752393037
0.922519 0.416038 -3.39186 204 182 121 1752393037
0.925084 0.435334 -3.40129 204 182 121 1752393037
0.927663 0.454737 -3.41077 204 182 121 1752393037
0.930257 0.474249 -3.42031 204 182 121 1752393037
0.932865 0.49387 -3.4299 204 182 121 1752393037
0.935488 0.513601 -3.43954 204 182 121 1752393037
0.938125 0.533444 -3.44924 204 182 121 1752393037
0.940778 0.553399 -3.45899 204 182 121 1752393037
0.943446 0.573467 -3.4688 204 182 121 1752393037
0.946128 0.593649 -3.47866 204 182 121 1752393037
0.948826 0.613947 -3.48858 204 182 121 1752393037
0.95154 0.63436 -3.49856 204 182 121 1752393037
0.954269 0.65489 -3.50859 204 182 121 1752393037
0.957014 0.675539 -3.51868 204 182 121 1752393037
0.959774 0.696307 -3.52883 204 182 121 1752393037
0.962551 0.717195 -3.53904 204 182 121 1752393037
0.965343 0.738204 -3.54931 204 182 121 1752393037
0.968152 0.759335 -3.55964 204 182 121 1752393037
0.970978 0.78059 -3.57003 204 182 121 1752393037
0.973819 0.801969 -3.58047 204 182 121 1752393037
0.734694 -1.06477 -2.66213 0 0 0 1752393037
0.736296 -1.05287 -2.66793 0 0 0 1752393037
0.737906 -1.04091 -2.67376 0 0 0 1752393037
0.739522 -1.0289 -2.67962 0 0 0 1752393037
0.741145 -1.01684 -2.6855 0 0 0 1752393037
0.742776 -1.00472 -2.69141 0 0 0 1752393037
0.744413 -0.992551 -2.69734 0 0 0 1752393037
0.746058 -0.980328 -2.7033 0 0 0 1752393037
0.747711 -0.968051 -2.70929 0 0 0 1752393037
0.74937 -0.955719 -2.7153 204 182 121 1752393037
0.751037 -0.943332 -2.72134 204 182 121 1752393037
0.752712 -0.93089 -2.72741 0 0 0 1752393037
0.754394 -0.918392 -2.73351 204 182 121 1752393037
0.756083 -0.905839 -2.73963 204 182 121 1752393037
0.75778 -0.893229 -2.74578 0 0 0 1752393037
0.759485 -0.880562 -2.75195 0 0 0 1752393037
0.761197 -0.867838 -2.75816 0 0 0 1752393037
0.762917 -0.855057 -2.76439 204 182 121 1752393037
0.764645 -0.842218 -2.77065 204 182 121 1752393037
0.766381 -0.82932 -2.77694 0 0 0 1752393037
0.768124 -0.816364 -2.78326 0 0 0 1752393037
0.769876 -0.803349 -2.7896 204 182 121 1752393037
0.771635 -0.790274 -2.79598 0 0 0 1752393037
0.773403 -0.777139 -2.80239 0 0 0 1752393037
0.775179 -0.763944 -2.80882 204 182 121 1752393037
0.776963 -0.750689 -2.81528 204 182 121 1752393037
0.778755 -0.737372 -2.82178 0 0 0 1752393037
0.780555 -0.723993 -2.8283 0 0 0 1752393037
0.782364 -0.710553 -2.83486 0 0 0 1752393037
0.784181 -0.69705 -2.84144 204 182 121 1752393037
0.786007 -0.683484 -2.84805 204 182 121 1752393037
0.787841 -0.669855 -2.8547 0 0 0 1752393037
0.789684 -0.656162 -2.86138 0 0 0 1752393037
0.791535 -0.642405 -2.86809 204 182 121 1752393037
0.793395 -0.628584 -2.87483 0 0 0 1752393037
0.795264 -0.614697 -2.8816 0 0 0 1752393037
0.797142 -0.600745 -2.8884 0 0 0 1752393037
0.799028 -0.586726 -2.89524 0 0 0 1752393037
0.800924 -0.572641 -2.90211 0 0 0 1752393037
0.802828 -0.558489 -2.90901 0 0 0 1752393037
0.804742 -0.54427 -2.91594 0 0 0 1752393037
0.806665 -0.529983 -2.92291 0 0 0 1752393037
0.808597 -0.515627 -2.92991 0 0 0 1752393037
0.810538 -0.501202 -2.93694 204 182 121 1752393037
0.812488 -0.486708 -2.94401 0 0 0 1752393037
0.814448 -0.472144 -2.95111 0 0 0 1752393037
0.816418 -0.45751 -2.95825 0 0 0 1752393037
0.818397 -0.442804 -2.96542 0 0 0 1752393037
0.820386 -0.428027 -2.97262 204 182 121 1752393037
0.822384 -0.413178 -2.97987 0 0 0 1752393037
0.824392 -0.398257 -2.98714 0 0 0 1752393037
0.82641 -0.383263 -2.99445 0 0 0 1752393037
0.828438 -0.368195 -3.0018 0 0 0 1752393037
0.830475 -0.353052 -3.00918 0 0 0 1752393037
0.832523 -0.337836 -3.0166 0 0 0 1752393037
0.834581 -0.322543 -3.02406 0 0 0 1752393037
0.836649 -0.307176 -3.03155 0 0 0 1752393037
0.838728 -0.291731 -3.03909 204 182 121 1752393037
0.840817 -0.27621 -3.04665 0 0 0 1752393037
0.842916 -0.260612 -3.05426 0 0 0 1752393037
0.845026 -0.244935 -3.06191 0 0 0 1752393037
0.847146 -0.22918 -3.06959 0 0 0 1752393037
0.849277 -0.213345 -3.07731 0 0 0 1752393037
0.851419 -0.19743 -3.08507 0 0 0 1752393037
0.853571 -0.181435 -3.09287 204 182 121 1752393037
0.855735 -0.165359 -3.10071 0 0 0 1752393037
0.857909 -0.149202 -3.10859 0 0 0 1752393037
0.860095 -0.132962 -3.11651 204 182 121 1752393037
0.862291 -0.116638 -3.12447 0 0 0 1752393037
0.864499 -0.100232 -3.13247 0 0 0 1752393037
0.866719 -0.083741 -3.14051 0 0 0 1752393037
0.868949 -0.067165 -3.14859 0 0 0 1752393037
0.871192 -0.050504 -3.15672 0 0 0 1752393037
0.873445 -0.033756 -3.16488 0 0 0 1752393037
0.875711 -0.016922 -3.17309 0 0 0 1752393037
0.877988 0 -3.18134 204 182 121 1752393037
0.880277 0.01701 -3.18964 0 0 0 1752393037
0.882578 0.034109 -3.19798 0 0 0 1752393037
0.884892 0.051298 -3.20636 204 182 121 1752393037
0.887217 0.068577 -3.21479 204 182 121 1752393037
0.889555 0.085947 -3.22325 0 0 0 1752393037
0.891905 0.103409 -3.23177 0 0 0 1752393037
0.894267 0.120964 -3.24033 0 0 0 1752393037
0.896642 0.138611 -3.24893 0 0 0 1752393037
0.89903 0.156353 -3.25759 0 0 0 1752393037
0.90143 0.174189 -3.26628 0 0 0 1752393037
0.903843 0.192121 -3.27503 0 0 0 1752393037
0.90627 0.210149 -3.28382 204 182 121 1752393037
0.908709 0.228275 -3.29266 204 182 121 1752393037
0.911161 0.246498 -3.30154 0 0 0 1752393037
0.913627 0.264819 -3.31048 204 182 121 1752393037
0.916106 0.28324 -3.31946 204 182 121 1752393037
0.918599 0.301762 -3.32849 204 182 121 1752393037
0.921105 0.320384 -3.33757 204 182 121 1752393037
0.923625 0.339109 -3.3467 204 182 121 1752393037
0.926158 0.357935 -3.35589 204 182 121 1752393037
0.928706 0.376866 -3.36512 204 182 121 1752393037
0.931267 0.395901 -3.3744 204 182 121 1752393037
0.933843 0.415042 -3.38373 204 182 121 1752393037
0.936433 0.434288 -3.39312 204 182 121 1752393037
0.939038 0.453642 -3.40255 204 182 121 1752393037
0.941657 0.473103 -3.41205 204 182 121 1752393037
0.944291 0.492674 -3.42159 204 182 121 1752393037
0.946939 0.512354 -3.43119 204 182 121 1752393037
0.949603 0.532144 -3.44083 204 182 121 1752393037
0.952281 0.552047 -3.45054 204 182 121 1752393037
0.954975 0.572062 -3.4603 204 182 121 1752393037
0.957684 0.592191 -3.47011 204 182 121 1752393037
0.960408 0.612434 -3.47999 204 182 121 1752393037
0.963148 0.632793 -3.48991 204 182 121 1752393037
0.965903 0.653268 -3.4999 204 182 121 1752393037
0.968674 0.673861 -3.50994 204 182 121 1752393037
0.971462 0.694572 -3.52004 204 182 121 1752393037
0.974265 0.715402 -3.5302 204 182 121 1752393037
0.977085 0.736354 -3.54041 204 182 121 1752393037
0.979921 0.757427 -3.55069 204 182 121 1752393037
0.982773 0.778622 -3.56103 204 182 121 1752393037
0.985642 0.799941 -3.57142 204 182 121 1752393037
0.74394 -1.06277 -2.65712 0 0 0 1752393037
0.745559 -1.05088 -2.6629 0 0 0 1752393037
0.747186 -1.03894 -2.66871 0 0 0 1752393037
0.748819 -1.02695 -2.67455 0 0 0 1752393037
0.75046 -1.01491 -2.6804 0 0 0 1752393037
0.752108 -1.00281 -2.68629 0 0 0 1752393037
0.753763 -0.99066 -2.6922 0 0 0 1752393037
0.755425 -0.978456 -2.69814 0 0 0 1752393037
0.757095 -0.966198 -2.7041 0 0 0 1752393037
0.758772 -0.953885 -2.71009 204 182 121 1752393037
0.760457 -0.941518 -2.71611 0 0 0 1752393037
0.762149 -0.929096 -2.72216 0 0 0 1752393037
0.763849 -0.916619 -2.72823 204 182 121 1752393037
0.765556 -0.904085 -2.73432 0 0 0 1752393037
0.767271 -0.891496 -2.74045 0 0 0 1752393037
0.768994 -0.87885 -2.7466 204 182 121 1752393037
0.770724 -0.866147 -2.75278 0 0 0 1752393037
0.772462 -0.853387 -2.75899 204 182 121 1752393037
0.774208 -0.840569 -2.76523 204 182 121 1752393037
0.775962 -0.827693 -2.77149 0 0 0 1752393037
0.777724 -0.814759 -2.77779 0 0 0 1752393037
0.779494 -0.801765 -2.78411 0 0 0 1752393037
0.781272 -0.788713 -2.79046 0 0 0 1752393037
0.783058 -0.775601 -2.79684 0 0 0 1752393037
0.784853 -0.762428 -2.80325 0 0 0 1752393037
0.786655 -0.749196 -2.80968 0 0 0 1752393037
0.788466 -0.735902 -2.81615 0 0 0 1752393037
0.790285 -0.722547 -2.82265 0 0 0 1752393037
0.792113 -0.70913 -2.82918 0 0 0 1752393037
