ply
format ascii 1.0
comment PCL generated
obj_info is_cyberware_data 0
obj_info is_mesh 0
obj_info is_warped 0
obj_info is_interlaced 0
obj_info num_cols 18423
obj_info num_rows 1
obj_info echo_rgb_offset_x 0
obj_info echo_rgb_offset_y 0
obj_info echo_rgb_offset_z 0
obj_info echo_rgb_frontfocus 0.0
obj_info echo_rgb_backfocus 0.0
obj_info echo_rgb_pixelsize 0.0
obj_info echo_rgb_centerpixel 0
obj_info echo_frames 1
obj_info echo_lgincr 0.0
element vertex 969
property float x
property float y
property float z
property uchar red
property uchar green
property uchar blue
property uint label
end_header
0.989713 0 -3.80686 255 255 255 1752393037
0.992317 0.020355 -3.81688 255 255 255 1752393037
0.994935 0.040818 -3.82695 255 255 255 1752393037
0.997567 0.061389 -3.83707 255 255 255 1752393037
1.00021 0.082069 -3.84724 255 255 255 1752393037
1.00287 0.102859 -3.85747 255 255 255 1752393037
1.00555 0.123759 -3.86776 255 255 255 1752393037
1.00823 0.144772 -3.8781 255 255 255 1752393037
1.01094 0.165897 -3.88849 255 255 255 1752393037
1.01365 0.187136 -3.89894 255 255 255 1752393037
1.01638 0.208489 -3.90945 255 255 255 1752393037
1.01913 0.229958 -3.92002 255 255 255 1752393037
1.02189 0.251543 -3.93064 255 255 255 1752393037
1.02467 0.273245 -3.94131 255 255 255 1752393037
1.02746 0.295066 -3.95205 255 255 255 1752393037
1.03027 0.317005 -3.96285 255 255 255 1752393037
1.03309 0.339065 -3.9737 255 255 255 1752393037
1.03593 0.361246 -3.98462 255 255 255 1752393037
1.03878 0.38355 -3.99559 255 255 255 1752393037
1.04165 0.405976 -4.00663 255 255 255 1752393037
1.04453 0.428527 -4.01772 255 255 255 1752393037
1.04743 0.451203 -4.02888 255 255 255 1752393037
1.05035 0.474005 -4.0401 255 255 255 1752393037
1.05329 0.496935 -4.05138 255 255 255 1752393037
1.05623 0.519993 -4.06273 255 255 255 1752393037
0.843092 -1.27741 -3.19376 79 115 115 1752393037
0.844941 -1.26314 -3.20076 79 115 115 1752393037
0.846799 -1.24881 -3.2078 79 115 115 1752393037
0.848664 -1.23442 -3.21487 79 115 115 1752393037
0.850538 -1.21996 -3.22196 79 115 115 1752393037
0.85242 -1.20544 -3.22909 79 115 115 1752393037
0.85431 -1.19086 -3.23625 79 115 115 1752393037
0.856209 -1.17621 -3.24345 79 115 115 1752393037
0.858116 -1.16149 -3.25067 79 115 115 1752393037
0.860032 -1.14671 -3.25793 79 115 115 1752393037
0.861956 -1.13186 -3.26522 79 115 115 1752393037
0.863889 -1.11695 -3.27254 79 115 115 1752393037
0.86583 -1.10197 -3.2799 79 115 115 1752393037
0.867781 -1.08692 -3.28728 79 115 115 1752393037
0.86974 -1.0718 -3.2947 79 115 115 1752393037
0.871708 -1.05662 -3.30216 79 115 115 1752393037
0.873685 -1.04136 -3.30965 79 115 115 1752393037
0.875671 -1.02604 -3.31717 79 115 115 1752393037
0.877666 -1.01065 -3.32473 79 115 115 1752393037
0.87967 -0.995182 -3.33232 79 115 115 1752393037
0.881683 -0.979648 -3.33995 79 115 115 1752393037
0.883705 -0.964042 -3.34761 79 115 115 1752393037
0.885737 -0.948365 -3.3553 79 115 115 1752393037
0.887778 -0.932616 -3.36304 79 115 115 1752393037
0.889829 -0.916794 -3.37081 79 115 115 1752393037
0.891889 -0.900898 -3.37861 79 115 115 1752393037
0.893959 -0.884929 -3.38645 79 115 115 1752393037
0.896038 -0.868885 -3.39433 79 115 115 1752393037
0.898127 -0.852767 -3.40224 79 115 115 1752393037
0.900226 -0.836573 -3.41019 79 115 115 1752393037
0.902334 -0.820304 -3.41818 79 115 115 1752393037
0.904453 -0.803958 -3.4262 79 115 115 1752393037
0.906581 -0.787535 -3.43426 79 115 115 1752393037
0.90872 -0.771035 -3.44236 79 115 115 1752393037
0.910868 -0.754456 -3.4505 79 115 115 1752393037
0.913027 -0.737799 -3.45868 79 115 115 1752393037
0.915196 -0.721063 -3.4669 79 115 115 1752393037
0.917375 -0.704248 -3.47515 79 115 115 1752393037
0.919565 -0.687352 -3.48345 79 115 115 1752393037
0.921765 -0.670375 -3.49179 79 115 115 1752393037
0.923976 -0.653316 -3.50016 79 115 115 1752393037
0.926198 -0.636176 -3.50857 79 115 115 1752393037
0.92843 -0.618953 -3.51703 79 115 115 1752393037
0.930672 -0.601647 -3.52553 79 115 115 1752393037
0.932926 -0.584257 -3.53406 79 115 115 1752393037
0.935191 -0.566783 -3.54264 79 115 115 1752393037
0.937467 -0.549223 -3.55126 79 115 115 1752393037
0.939754 -0.531578 -3.55993 79 115 115 1752393037
0.942052 -0.513846 -3.56863 79 115 115 1752393037
0.944361 -0.496028 -3.57738 79 115 115 1752393037
0.946682 -0.478122 -3.58617 79 115 115 1752393037
0.949014 -0.460128 -3.59501 79 115 115 1752393037
0.951357 -0.442045 -3.60388 79 115 115 1752393037
0.953713 -0.423872 -3.6128 79 115 115 1752393037
0.956079 -0.405609 -3.62177 79 115 115 1752393037
0.958458 -0.387256 -3.63078 79 115 115 1752393037
0.960849 -0.368811 -3.63984 79 115 115 1752393037
0.963251 -0.350273 -3.64894 79 115 115 1752393037
0.965666 -0.331643 -3.65809 79 115 115 1752393037
0.968092 -0.312919 -3.66728 79 115 115 1752393037
0.970531 -0.2941 -3.67652 79 115 115 1752393037
0.972982 -0.275187 -3.6858 79 115 115 1752393037
0.975446 -0.256178 -3.69514 79 115 115 1752393037
0.977922 -0.237072 -3.70451 79 115 115 1752393037
0.980411 -0.217869 -3.71394 79 115 115 1752393037
0.982912 -0.198568 -3.72342 79 115 115 1752393037
0.985427 -0.179168 -3.73294 79 115 115 1752393037
0.987954 -0.159669 -3.74252 79 115 115 1752393037
0.990494 -0.14007 -3.75214 79 115 115 1752393037
0.993047 -0.120369 -3.76181 79 115 115 1752393037
0.995613 -0.100567 -3.77153 79 115 115 1752393037
0.998193 -0.080662 -3.7813 79 115 115 1752393037
1.00079 -0.060654 -3.79113 79 115 115 1752393037
1.00339 -0.040541 -3.801 79 115 115 1752393037
1.00387 -0.02028 -3.8028 170 170 170 1752393037
1.00266 0 -3.79823 255 255 255 1752393037
1.00529 0.020309 -3.8082 255 255 255 1752393037
1.00794 0.040725 -3.81822 255 255 255 1752393037
1.0106 0.061248 -3.8283 255 255 255 1752393037
1.01327 0.081881 -3.83843 255 255 255 1752393037
1.01596 0.102622 -3.84861 255 255 255 1752393037
1.01866 0.123474 -3.85885 255 255 255 1752393037
1.02138 0.144438 -3.86914 255 255 255 1752393037
1.02411 0.165513 -3.87949 255 255 255 1752393037
1.02686 0.186701 -3.88989 255 255 255 1752393037
1.02962 0.208004 -3.90035 255 255 255 1752393037
1.03239 0.229421 -3.91086 255 255 255 1752393037
1.03518 0.250954 -3.92144 255 255 255 1752393037
1.03799 0.272604 -3.93206 255 255 255 1752393037
1.04081 0.294371 -3.94275 255 255 255 1752393037
1.04365 0.316257 -3.9535 255 255 255 1752393037
1.0465 0.338263 -3.9643 255 255 255 1752393037
1.04937 0.360389 -3.97516 255 255 255 1752393037
1.05225 0.382637 -3.98608 255 255 255 1752393037
1.05515 0.405007 -3.99707 255 255 255 1752393037
1.05807 0.427501 -4.00811 255 255 255 1752393037
1.061 0.45012 -4.01922 255 255 255 1752393037
1.06395 0.472864 -4.03038 255 255 255 1752393037
1.06691 0.495735 -4.04161 255 255 255 1752393037
1.06989 0.518734 -4.0529 255 255 255 1752393037
0.854247 -1.275 -3.18772 79 115 115 1752393037
0.856117 -1.26075 -3.19469 79 115 115 1752393037
0.857996 -1.24644 -3.2017 79 115 115 1752393037
0.859882 -1.23207 -3.20874 79 115 115 1752393037
0.861777 -1.21764 -3.21582 79 115 115 1752393037
0.86368 -1.20314 -3.22292 79 115 115 1752393037
0.865592 -1.18857 -3.23005 79 115 115 1752393037
0.867512 -1.17395 -3.23722 79 115 115 1752393037
0.86944 -1.15925 -3.24441 79 115 115 1752393037
0.871378 -1.1445 -3.25164 79 115 115 1752393037
0.873324 -1.12967 -3.2589 79 115 115 1752393037
0.875278 -1.11478 -3.2662 79 115 115 1752393037
0.877241 -1.09983 -3.27352 79 115 115 1752393037
0.879214 -1.0848 -3.28088 79 115 115 1752393037
0.881195 -1.06971 -3.28828 79 115 115 1752393037
0.883185 -1.05455 -3.2957 79 115 115 1752393037
0.885184 -1.03932 -3.30316 79 115 115 1752393037
0.887192 -1.02402 -3.31065 79 115 115 1752393037
0.889209 -1.00865 -3.31818 79 115 115 1752393037
0.891236 -0.993218 -3.32574 79 115 115 1752393037
0.893271 -0.97771 -3.33334 79 115 115 1752393037
0.895316 -0.962131 -3.34097 79 115 115 1752393037
0.897371 -0.946481 -3.34864 79 115 115 1752393037
0.899435 -0.930758 -3.35634 79 115 115 1752393037
0.901508 -0.914963 -3.36407 79 115 115 1752393037
0.903591 -0.899095 -3.37185 79 115 115 1752393037
0.905683 -0.883154 -3.37966 79 115 115 1752393037
0.907786 -0.867139 -3.3875 79 115 115 1752393037
0.909898 -0.851049 -3.39538 79 115 115 1752393037
0.91202 -0.834884 -3.4033 79 115 115 1752393037
0.914152 -0.818643 -3.41126 79 115 115 1752393037
0.916294 -0.802327 -3.41925 79 115 115 1752393037
0.918446 -0.785933 -3.42728 79 115 115 1752393037
0.920607 -0.769463 -3.43535 79 115 115 1752393037
0.92278 -0.752915 -3.44345 79 115 115 1752393037
0.924962 -0.736288 -3.4516 79 115 115 1752393037
0.927155 -0.719583 -3.45978 79 115 115 1752393037
0.929358 -0.702798 -3.468 79 115 115 1752393037
0.931572 -0.685934 -3.47626 79 115 115 1752393037
0.933797 -0.668989 -3.48456 79 115 115 1752393037
0.936031 -0.651962 -3.4929 79 115 115 1752393037
0.938277 -0.634854 -3.50128 79 115 115 1752393037
0.940534 -0.617664 -3.50971 79 115 115 1752393037
0.942801 -0.600391 -3.51817 79 115 115 1752393037
0.945079 -0.583034 -3.52667 79 115 115 1752393037
0.947369 -0.565593 -3.53521 79 115 115 1752393037
0.94967 -0.548068 -3.5438 79 115 115 1752393037
0.951981 -0.530457 -3.55242 79 115 115 1752393037
0.954304 -0.51276 -3.56109 79 115 115 1752393037
0.956639 -0.494977 -3.5698 79 115 115 1752393037
0.958984 -0.477107 -3.57856 79 115 115 1752393037
0.961342 -0.459148 -3.58735 79 115 115 1752393037
0.963711 -0.441101 -3.59619 79 115 115 1752393037
0.966091 -0.422965 -3.60508 79 115 115 1752393037
0.968484 -0.40474 -3.614 79 115 115 1752393037
0.970888 -0.386423 -3.62298 79 115 115 1752393037
0.973304 -0.368016 -3.63199 79 115 115 1752393037
0.975733 -0.349516 -3.64105 79 115 115 1752393037
0.978173 -0.330924 -3.65016 79 115 115 1752393037
0.980626 -0.312239 -3.65931 79 115 115 1752393037
0.983091 -0.29346 -3.66851 79 115 115 1752393037
0.985569 -0.274586 -3.67776 79 115 115 1752393037
0.988059 -0.255617 -3.68705 79 115 115 1752393037
0.990561 -0.236552 -3.69639 79 115 115 1752393037
0.993077 -0.21739 -3.70578 79 115 115 1752393037
0.995605 -0.19813 -3.71521 79 115 115 1752393037
0.998146 -0.178772 -3.72469 79 115 115 1752393037
1.0007 -0.159315 -3.73422 79 115 115 1752393037
1.00327 -0.139759 -3.7438 79 115 115 1752393037
1.00585 -0.120101 -3.75343 79 115 115 1752393037
1.00844 -0.100342 -3.76311 79 115 115 1752393037
1.01105 -0.080481 -3.77284 79 115 115 1752393037
1.01367 -0.060518 -3.78262 79 115 115 1752393037
1.0163 -0.04045 -3.79245 79 115 115 1752393037
1.01895 -0.020278 -3.80233 79 115 115 1752393037
1.01555 0 -3.78964 255 255 255 1752393037
1.01821 0.020263 -3.79956 255 255 255 1752393037
1.02088 0.040632 -3.80954 255 255 255 1752393037
1.02357 0.061109 -3.81957 255 255 255 1752393037
1.02627 0.081693 -3.82965 255 255 255 1752393037
1.02899 0.102387 -3.83979 255 255 255 1752393037
1.03172 0.123191 -3.84998 255 255 255 1752393037
1.03447 0.144105 -3.86022 255 255 255 1752393037
1.03723 0.165131 -3.87052 255 255 255 1752393037
1.04 0.186269 -3.88088 255 255 255 1752393037
1.04279 0.207521 -3.89129 255 255 255 1752393037
1.0456 0.228887 -3.90175 255 255 255 1752393037
1.04841 0.250368 -3.91228 255 255 255 1752393037
1.05125 0.271965 -3.92285 255 255 255 1752393037
1.0541 0.29368 -3.93349 255 255 255 1752393037
1.05697 0.315512 -3.94419 255 255 255 1752393037
1.05985 0.337464 -3.95494 255 255 255 1752393037
1.06274 0.359536 -3.96575 255 255 255 1752393037
1.06566 0.381728 -3.97662 255 255 255 1752393037
1.06859 0.404043 -3.98755 255 255 255 1752393037
1.07153 0.426481 -3.99854 255 255 255 1752393037
1.07449 0.449043 -4.00959 255 255 255 1752393037
1.07747 0.471729 -4.02071 255 255 255 1752393037
1.08047 0.494542 -4.03188 255 255 255 1752393037
1.08348 0.517482 -4.04312 255 255 255 1752393037
1.08651 0.540551 -4.05442 255 255 255 1752393037
0.86536 -1.27259 -3.1817 79 115 115 1752393037
0.867251 -1.25836 -3.18865 79 115 115 1752393037
0.86915 -1.24408 -3.19563 79 115 115 1752393037
0.871057 -1.22973 -3.20265 79 115 115 1752393037
0.872973 -1.21532 -3.20969 79 115 115 1752393037
0.874898 -1.20084 -3.21676 79 115 115 1752393037
0.87683 -1.1863 -3.22387 79 115 115 1752393037
0.878772 -1.17169 -3.23101 79 115 115 1752393037
0.880721 -1.15703 -3.23818 79 115 115 1752393037
0.88268 -1.14229 -3.24538 79 115 115 1752393037
0.884647 -1.12749 -3.25261 79 115 115 1752393037
0.886624 -1.11263 -3.25988 79 115 115 1752393037
0.888609 -1.09769 -3.26718 79 115 115 1752393037
0.890602 -1.08269 -3.27451 79 115 115 1752393037
0.892605 -1.06763 -3.28187 79 115 115 1752393037
0.894617 -1.05249 -3.28927 79 115 115 1752393037
0.896638 -1.03729 -3.2967 79 115 115 1752393037
0.898668 -1.02201 -3.30416 79 115 115 1752393037
0.900707 -1.00667 -3.31166 79 115 115 1752393037
0.902756 -0.991261 -3.31919 79 115 115 1752393037
0.904814 -0.97578 -3.32676 79 115 115 1752393037
0.906881 -0.960227 -3.33436 79 115 115 1752393037
0.908958 -0.944604 -3.342 79 115 115 1752393037
0.911044 -0.928908 -3.34967 79 115 115 1752393037
0.91314 -0.91314 -3.35737 79 115 115 1752393037
0.915246 -0.8973 -3.36511 79 115 115 1752393037
0.917361 -0.881386 -3.37289 79 115 115 1752393037
0.919486 -0.865399 -3.38071 79 115 115 1752393037
0.921622 -0.849337 -3.38856 79 115 115 1752393037
0.923766 -0.833201 -3.39644 79 115 115 1752393037
0.925921 -0.816989 -3.40437 79 115 115 1752393037
0.928086 -0.800702 -3.41233 79 115 115 1752393037
0.930262 -0.784338 -3.42032 79 115 115 1752393037
0.932447 -0.767897 -3.42836 79 115 115 1752393037
0.934643 -0.751379 -3.43643 79 115 115 1752393037
0.936849 -0.734783 -3.44454 79 115 115 1752393037
0.939065 -0.718109 -3.45269 79 115 115 1752393037
0.941292 -0.701355 -3.46088 79 115 115 1752393037
0.94353 -0.684522 -3.46911 79 115 115 1752393037
0.945778 -0.667608 -3.47737 79 115 115 1752393037
0.948037 -0.650614 -3.48568 79 115 115 1752393037
0.950307 -0.633538 -3.49402 79 115 115 1752393037
0.952588 -0.61638 -3.50241 79 115 115 1752393037
0.954879 -0.59914 -3.51084 79 115 115 1752393037
0.957182 -0.581816 -3.5193 79 115 115 1752393037
0.959496 -0.564409 -3.52781 79 115 115 1752393037
0.961821 -0.546918 -3.53636 79 115 115 1752393037
0.964157 -0.529341 -3.54495 79 115 115 1752393037
0.966505 -0.511679 -3.55358 79 115 115 1752393037
0.968864 -0.493931 -3.56225 79 115 115 1752393037
0.971235 -0.476096 -3.57097 79 115 115 1752393037
0.973617 -0.458173 -3.57973 79 115 115 1752393037
0.976012 -0.440162 -3.58853 79 115 115 1752393037
0.978417 -0.422062 -3.59738 79 115 115 1752393037
0.980835 -0.403873 -3.60627 79 115 115 1752393037
0.983265 -0.385594 -3.6152 79 115 115 1752393037
0.985707 -0.367224 -3.62418 79 115 115 1752393037
0.988161 -0.348763 -3.6332 79 115 115 1752393037
0.990627 -0.330209 -3.64227 79 115 115 1752393037
0.993106 -0.311563 -3.65139 79 115 115 1752393037
0.995597 -0.292823 -3.66054 79 115 115 1752393037
0.9981 -0.273988 -3.66975 79 115 115 1752393037
1.00062 -0.255059 -3.679 79 115 115 1752393037
1.00315 -0.236034 -3.6883 79 115 115 1752393037
1.00569 -0.216913 -3.69764 79 115 115 1752393037
1.00824 -0.197694 -3.70704 79 115 115 1752393037
1.01081 -0.178378 -3.71648 79 115 115 1752393037
1.01339 -0.158963 -3.72597 79 115 115 1752393037
1.01598 -0.139449 -3.7355 79 115 115 1752393037
1.01859 -0.119834 -3.74509 79 115 115 1752393037
1.02121 -0.100119 -3.75472 79 115 115 1752393037
1.02385 -0.080302 -3.76441 79 115 115 1752393037
1.02649 -0.060382 -3.77414 79 115 115 1752393037
1.02916 -0.040359 -3.78393 79 115 115 1752393037
1.03183 -0.020232 -3.79377 79 115 115 1752393037
1.02838 0 -3.78108 255 255 255 1752393037
1.03107 0.020217 -3.79096 255 255 255 1752393037
1.03377 0.04054 -3.8009 255 255 255 1752393037
1.03648 0.06097 -3.81088 255 255 255 1752393037
1.03922 0.081507 -3.82092 255 255 255 1752393037
1.04196 0.102153 -3.83101 255 255 255 1752393037
1.04472 0.122908 -3.84115 255 255 255 1752393037
1.04749 0.143773 -3.85135 255 255 255 1752393037
1.05028 0.16475 -3.8616 255 255 255 1752393037
1.05308 0.185838 -3.87191 255 255 255 1752393037
1.0559 0.20704 -3.88227 255 255 255 1752393037
1.05874 0.228355 -3.89269 255 255 255 1752393037
1.06158 0.249784 -3.90316 255 255 255 1752393037
1.06445 0.27133 -3.91369 255 255 255 1752393037
1.06733 0.292992 -3.92428 255 255 255 1752393037
1.07022 0.314771 -3.93492 255 255 255 1752393037
1.07313 0.336669 -3.94562 255 255 255 1752393037
1.07606 0.358687 -3.95638 255 255 255 1752393037
1.079 0.380824 -3.9672 255 255 255 1752393037
1.08196 0.403084 -3.97808 255 255 255 1752393037
1.08494 0.425465 -3.98902 255 255 255 1752393037
1.08793 0.44797 -4.00002 255 255 255 1752393037
1.09094 0.4706 -4.01108 255 255 255 1752393037
1.09396 0.493355 -4.0222 255 255 255 1752393037
1.097 0.516236 -4.03338 255 255 255 1752393037
1.10006 0.539246 -4.04463 255 255 255 1752393037
0.876431 -1.27019 -3.1757 79 115 115 1752393037
0.878343 -1.25599 -3.18263 79 115 115 1752393037
0.880262 -1.24172 -3.18958 79 115 115 1752393037
0.882191 -1.2274 -3.19657 79 115 115 1752393037
0.884127 -1.213 -3.20359 79 115 115 1752393037
0.886072 -1.19855 -3.21064 79 115 115 1752393037
0.888026 -1.18403 -3.21772 79 115 115 1752393037
0.889988 -1.16945 -3.22482 79 115 115 1752393037
0.891959 -1.15481 -3.23197 79 115 115 1752393037
0.893939 -1.1401 -3.23914 79 115 115 1752393037
0.895928 -1.12532 -3.24635 79 115 115 1752393037
0.897925 -1.11048 -3.25358 79 115 115 1752393037
0.899931 -1.09557 -3.26085 79 115 115 1752393037
0.901947 -1.08059 -3.26816 79 115 115 1752393037
0.903971 -1.06555 -3.27549 79 115 115 1752393037
0.906005 -1.05044 -3.28286 79 115 115 1752393037
0.908047 -1.03526 -3.29026 79 115 115 1752393037
0.910099 -1.02002 -3.2977 79 115 115 1752393037
0.91216 -1.0047 -3.30517 79 115 115 1752393037
0.914231 -0.989313 -3.31267 79 115 115 1752393037
0.916311 -0.973857 -3.3202 79 115 115 1752393037
0.9184 -0.958331 -3.32778 79 115 115 1752393037
0.920499 -0.942734 -3.33538 79 115 115 1752393037
0.922608 -0.927065 -3.34302 79 115 115 1752393037
0.924726 -0.911325 -3.3507 79 115 115 1752393037
0.926854 -0.895512 -3.35841 79 115 115 1752393037
0.928992 -0.879626 -3.36615 79 115 115 1752393037
0.93114 -0.863666 -3.37394 79 115 115 1752393037
0.933298 -0.847633 -3.38176 79 115 115 1752393037
0.935466 -0.831525 -3.38961 79 115 115 1752393037
0.937644 -0.815342 -3.3975 79 115 115 1752393037
0.939831 -0.799084 -3.40543 79 115 115 1752393037
0.94203 -0.782749 -3.41339 79 115 115 1752393037
0.944238 -0.766338 -3.4214 79 115 115 1752393037
0.946457 -0.74985 -3.42944 79 115 115 1752393037
0.948687 -0.733284 -3.43752 79 115 115 1752393037
0.950927 -0.71664 -3.44563 79 115 115 1752393037
0.953177 -0.699917 -3.45379 79 115 115 1752393037
0.955438 -0.683115 -3.46198 79 115 115 1752393037
0.95771 -0.666233 -3.47021 79 115 115 1752393037
0.959993 -0.649271 -3.47848 79 115 115 1752393037
0.962287 -0.632227 -3.48679 79 115 115 1752393037
0.964591 -0.615102 -3.49515 79 115 115 1752393037
0.966907 -0.597894 -3.50354 79 115 115 1752393037
0.969234 -0.580604 -3.51197 79 115 115 1752393037
0.971572 -0.56323 -3.52044 79 115 115 1752393037
0.973921 -0.545772 -3.52895 79 115 115 1752393037
0.976282 -0.52823 -3.53751 79 115 115 1752393037
0.978655 -0.510602 -3.5461 79 115 115 1752393037
0.981039 -0.492889 -3.55474 79 115 115 1752393037
0.983434 -0.475089 -3.56342 79 115 115 1752393037
0.985841 -0.457202 -3.57214 79 115 115 1752393037
0.98826 -0.439227 -3.58091 79 115 115 1752393037
0.990691 -0.421163 -3.58972 79 115 115 1752393037
0.993134 -0.403011 -3.59857 79 115 115 1752393037
0.995589 -0.384769 -3.60746 79 115 115 1752393037
0.998056 -0.366436 -3.6164 79 115 115 1752393037
1.00054 -0.348012 -3.62539 79 115 115 1752393037
1.00303 -0.329497 -3.63442 79 115 115 1752393037
1.00553 -0.310889 -3.64349 79 115 115 1752393037
1.00805 -0.292188 -3.65261 79 115 115 1752393037
1.01058 -0.273393 -3.66177 79 115 115 1752393037
1.01312 -0.254503 -3.67098 79 115 115 1752393037
1.01567 -0.235519 -3.68024 79 115 115 1752393037
1.01824 -0.216438 -3.68955 79 115 115 1752393037
1.02082 -0.197261 -3.6989 79 115 115 1752393037
1.02342 -0.177986 -3.7083 79 115 115 1752393037
1.02602 -0.158612 -3.71775 79 115 115 1752393037
1.02865 -0.13914 -3.72724 79 115 115 1752393037
1.03128 -0.119569 -3.73678 79 115 115 1752393037
1.03393 -0.099896 -3.74638 79 115 115 1752393037
1.03659 -0.080123 -3.75602 79 115 115 1752393037
1.03926 -0.060247 -3.76571 79 115 115 1752393037
1.04195 -0.040269 -3.77545 79 115 115 1752393037
1.04465 -0.020187 -3.78525 79 115 115 1752393037
1.04227 0 -3.77662 170 170 170 1752393037
1.04387 0.020171 -3.7824 255 255 255 1752393037
1.0466 0.040448 -3.79229 255 255 255 1752393037
1.04934 0.060831 -3.80223 255 255 255 1752393037
1.0521 0.081322 -3.81222 255 255 255 1752393037
1.05487 0.10192 -3.82227 255 255 255 1752393037
1.05766 0.122627 -3.83236 255 255 255 1752393037
1.06046 0.143444 -3.84251 255 255 255 1752393037
1.06327 0.164371 -3.85272 255 255 255 1752393037
1.06611 0.18541 -3.86298 255 255 255 1752393037
1.06895 0.206561 -3.87329 255 255 255 1752393037
1.07181 0.227825 -3.88366 255 255 255 1752393037
1.07469 0.249204 -3.89409 255 255 255 1752393037
1.07758 0.270697 -3.90457 255 255 255 1752393037
1.08049 0.292307 -3.91511 255 255 255 1752393037
1.08342 0.314034 -3.9257 255 255 255 1752393037
1.08636 0.335878 -3.93635 255 255 255 1752393037
1.08931 0.357841 -3.94706 255 255 255 1752393037
1.09228 0.379925 -3.95783 255 255 255 1752393037
1.09527 0.402129 -3.96866 255 255 255 1752393037
1.09828 0.424454 -3.97955 255 255 255 1752393037
1.1013 0.446903 -3.99049 255 255 255 1752393037
1.10433 0.469476 -4.0015 255 255 255 1752393037
1.10739 0.492173 -4.01257 255 255 255 1752393037
1.11046 0.514996 -4.0237 255 255 255 1752393037
1.11355 0.537947 -4.03489 255 255 255 1752393037
0.887461 -1.2678 -3.16973 79 115 115 1752393037
0.889393 -1.25362 -3.17663 79 115 115 1752393037
0.891333 -1.23938 -3.18356 79 115 115 1752393037
0.893281 -1.22507 -3.19052 79 115 115 1752393037
0.895239 -1.2107 -3.19751 79 115 115 1752393037
0.897205 -1.19627 -3.20453 79 115 115 1752393037
0.899179 -1.18178 -3.21158 79 115 115 1752393037
0.901162 -1.16722 -3.21867 79 115 115 1752393037
0.903154 -1.1526 -3.22578 79 115 115 1752393037
0.905155 -1.13791 -3.23293 79 115 115 1752393037
0.907164 -1.12316 -3.2401 79 115 115 1752393037
0.909183 -1.10834 -3.24731 79 115 115 1752393037
0.911211 -1.09345 -3.25456 79 115 115 1752393037
0.913247 -1.0785 -3.26183 79 115 115 1752393037
0.915293 -1.06348 -3.26914 79 115 115 1752393037
0.917348 -1.0484 -3.27648 79 115 115 1752393037
0.919412 -1.03324 -3.28385 79 115 115 1752393037
0.921486 -1.01802 -3.29125 79 115 115 1752393037
0.923569 -1.00273 -3.2987 79 115 115 1752393037
0.925661 -0.987372 -3.30617 79 115 115 1752393037
0.927763 -0.971942 -3.31367 79 115 115 1752393037
0.929874 -0.956442 -3.32122 79 115 115 1752393037
0.931995 -0.940872 -3.32879 79 115 115 1752393037
0.934126 -0.92523 -3.3364 79 115 115 1752393037
0.936267 -0.909516 -3.34405 79 115 115 1752393037
0.938417 -0.893731 -3.35173 79 115 115 1752393037
0.940577 -0.877872 -3.35944 79 115 115 1752393037
0.942747 -0.86194 -3.36719 79 115 115 1752393037
0.944927 -0.845935 -3.37498 79 115 115 1752393037
0.947118 -0.829856 -3.38281 79 115 115 1752393037
0.949319 -0.813702 -3.39067 79 115 115 1752393037
0.951529 -0.797472 -3.39856 79 115 115 1752393037
0.95375 -0.781167 -3.4065 79 115 115 1752393037
0.955982 -0.764786 -3.41446 79 115 115 1752393037
0.958224 -0.748327 -3.42247 79 115 115 1752393037
0.960476 -0.731791 -3.43052 79 115 115 1752393037
0.96274 -0.715178 -3.4386 79 115 115 1752393037
0.965013 -0.698486 -3.44672 79 115 115 1752393037
0.967298 -0.681715 -3.45488 79 115 115 1752393037
0.969593 -0.664864 -3.46308 79 115 115 1752393037
0.9719 -0.647933 -3.47132 79 115 115 1752393037
0.974217 -0.630921 -3.47959 79 115 115 1752393037
0.976545 -0.613829 -3.48791 79 115 115 1752393037
0.978885 -0.596654 -3.49627 79 115 115 1752393037
0.981236 -0.579396 -3.50466 79 115 115 1752393037
0.983598 -0.562056 -3.5131 79 115 115 1752393037
0.985971 -0.544632 -3.52158 79 115 115 1752393037
0.988356 -0.527123 -3.5301 79 115 115 1752393037
0.990753 -0.50953 -3.53866 79 115 115 1752393037
0.993161 -0.491851 -3.54726 79 115 115 1752393037
0.995581 -0.474086 -3.5559 79 115 115 1752393037
0.998013 -0.456235 -3.56459 79 115 115 1752393037
1.00046 -0.438295 -3.57331 79 115 115 1752393037
1.00291 -0.420268 -3.58209 79 115 115 1752393037
1.00538 -0.402152 -3.5909 79 115 115 1752393037
1.00786 -0.383947 -3.59976 79 115 115 1752393037
1.01035 -0.365651 -3.60866 79 115 115 1752393037
1.01286 -0.347265 -3.6176 79 115 115 1752393037
1.01537 -0.328788 -3.6266 79 115 115 1752393037
1.0179 -0.310218 -3.63563 79 115 115 1752393037
1.02045 -0.291556 -3.64471 79 115 115 1752393037
1.023 -0.2728 -3.65383 79 115 115 1752393037
1.02557 -0.25395 -3.66301 79 115 115 1752393037
1.02815 -0.235005 -3.67222 79 115 115 1752393037
1.03074 -0.215965 -3.68149 79 115 115 1752393037
1.03335 -0.196828 -3.6908 79 115 115 1752393037
1.03597 -0.177595 -3.70016 79 115 115 1752393037
1.0386 -0.158263 -3.70956 79 115 115 1752393037
1.04125 -0.138833 -3.71901 79 115 115 1752393037
1.04391 -0.119304 -3.72852 79 115 115 1752393037
1.04658 -0.099675 -3.73807 79 115 115 1752393037
1.04927 -0.079944 -3.74767 79 115 115 1752393037
1.05197 -0.060113 -3.75731 79 115 115 1752393037
1.05469 -0.040179 -3.76701 79 115 115 1752393037
1.05742 -0.020141 -3.77676 79 115 115 1752393037
1.05802 0 -3.7789 170 170 170 1752393037
1.05661 0.020126 -3.77388 255 255 255 1752393037
1.05937 0.040357 -3.78373 255 255 255 1752393037
1.06214 0.060694 -3.79362 255 255 255 1752393037
1.06492 0.081137 -3.80357 255 255 255 1752393037
1.06772 0.101688 -3.81357 255 255 255 1752393037
1.07054 0.122347 -3.82362 255 255 255 1752393037
1.07336 0.143115 -3.83372 255 255 255 1752393037
1.07621 0.163994 -3.84388 255 255 255 1752393037
1.07907 0.184983 -3.85409 255 255 255 1752393037
1.08194 0.206084 -3.86436 255 255 255 1752393037
1.08483 0.227298 -3.87468 255 255 255 1752393037
1.08774 0.248626 -3.88506 255 255 255 1752393037
1.09066 0.270068 -3.89549 255 255 255 1752393037
1.0936 0.291625 -3.90598 255 255 255 1752393037
1.09655 0.313299 -3.91652 255 255 255 1752393037
1.09952 0.335091 -3.92712 255 255 255 1752393037
1.1025 0.357 -3.93778 255 255 255 1752393037
1.1055 0.379029 -3.9485 255 255 255 1752393037
1.10852 0.401178 -3.95928 255 255 255 1752393037
1.11155 0.423448 -3.97011 255 255 255 1752393037
1.1146 0.445841 -3.98101 255 255 255 1752393037
1.11767 0.468357 -3.99196 255 255 255 1752393037
1.12075 0.490997 -4.00298 255 255 255 1752393037
1.12385 0.513762 -4.01405 255 255 255 1752393037
1.12697 0.536654 -4.02519 255 255 255 1752393037
0.898449 -1.26542 -3.16378 79 115 115 1752393037
0.900401 -1.25126 -3.17065 79 115 115 1752393037
0.902361 -1.23704 -3.17756 79 115 115 1752393037
0.90433 -1.22276 -3.18449 79 115 115 1752393037
0.906308 -1.20841 -3.19145 79 115 115 1752393037
0.908294 -1.194 -3.19845 79 115 115 1752393037
0.910289 -1.17953 -3.20547 79 115 115 1752393037
0.912293 -1.16499 -3.21253 79 115 115 1752393037
0.914306 -1.15039 -3.21962 79 115 115 1752393037
0.916327 -1.13573 -3.22674 79 115 115 1752393037
0.918358 -1.121 -3.23389 79 115 115 1752393037
0.920398 -1.10621 -3.24107 79 115 115 1752393037
0.922446 -1.09134 -3.24828 79 115 115 1752393037
0.924504 -1.07642 -3.25553 79 115 115 1752393037
0.926571 -1.06142 -3.26281 79 115 115 1752393037
0.928647 -1.04636 -3.27012 79 115 115 1752393037
0.930733 -1.03123 -3.27746 79 115 115 1752393037
0.932828 -1.01604 -3.28484 79 115 115 1752393037
0.934932 -1.00077 -3.29225 79 115 115 1752393037
0.937046 -0.985438 -3.2997 79 115 115 1752393037
0.93917 -0.970035 -3.30717 79 115 115 1752393037
0.941303 -0.954561 -3.31468 79 115 115 1752393037
0.943446 -0.939017 -3.32223 79 115 115 1752393037
0.945599 -0.923401 -3.32981 79 115 115 1752393037
0.947761 -0.907715 -3.33742 79 115 115 1752393037
0.949933 -0.891956 -3.34507 79 115 115 1752393037
0.952116 -0.876125 -3.35276 79 115 115 1752393037
0.954308 -0.860222 -3.36048 79 115 115 1752393037
0.956511 -0.844244 -3.36824 79 115 115 1752393037
0.958724 -0.828193 -3.37603 79 115 115 1752393037
0.960947 -0.812068 -3.38386 79 115 115 1752393037
0.96318 -0.795867 -3.39172 79 115 115 1752393037
0.965424 -0.779591 -3.39962 79 115 115 1752393037
0.967678 -0.763239 -3.40756 79 115 115 1752393037
0.969943 -0.74681 -3.41553 79 115 115 1752393037
0.972218 -0.730305 -3.42355 79 115 115 1752393037
0.974504 -0.713721 -3.4316 79 115 115 1752393037
0.976802 -0.69706 -3.43969 79 115 115 1752393037
0.979109 -0.68032 -3.44781 79 115 115 1752393037
0.981428 -0.663501 -3.45598 79 115 115 1752393037
0.983757 -0.646601 -3.46418 79 115 115 1752393037
0.986098 -0.629621 -3.47242 79 115 115 1752393037
0.98845 -0.612561 -3.48071 79 115 115 1752393037
0.990813 -0.595418 -3.48903 79 115 115 1752393037
0.993188 -0.578194 -3.49739 79 115 115 1752393037
0.995574 -0.560887 -3.50579 79 115 115 1752393037
0.997971 -0.543496 -3.51423 79 115 115 1752393037
1.00038 -0.526022 -3.52272 79 115 115 1752393037
1.0028 -0.508462 -3.53124 79 115 115 1752393037
1.00523 -0.490818 -3.53981 79 115 115 1752393037
1.00768 -0.473088 -3.54841 79 115 115 1752393037
1.01013 -0.455271 -3.55706 79 115 115 1752393037
1.0126 -0.437368 -3.56575 79 115 115 1752393037
1.01508 -0.419377 -3.57449 79 115 115 1752393037
1.01758 -0.401297 -3.58326 79 115 115 1752393037
1.02008 -0.383128 -3.59208 79 115 115 1752393037
1.0226 -0.36487 -3.60095 79 115 115 1752393037
1.02513 -0.346521 -3.60985 79 115 115 1752393037
1.02767 -0.328082 -3.61881 79 115 115 1752393037
1.03022 -0.30955 -3.6278 79 115 115 1752393037
1.03279 -0.290927 -3.63684 79 115 115 1752393037
1.03537 -0.27221 -3.64593 79 115 115 1752393037
1.03796 -0.253399 -3.65506 79 115 115 1752393037
1.04057 -0.234494 -3.66424 79 115 115 1752393037
1.04319 -0.215494 -3.67346 79 115 115 1752393037
1.04582 -0.196398 -3.68273 79 115 115 1752393037
1.04847 -0.177206 -3.69205 79 115 115 1752393037
1.05113 -0.157916 -3.70141 79 115 115 1752393037
1.0538 -0.138528 -3.71082 79 115 115 1752393037
1.05649 -0.119041 -3.72028 79 115 115 1752393037
1.05919 -0.099454 -3.72979 79 115 115 1752393037
1.0619 -0.079767 -3.73935 79 115 115 1752393037
1.06463 -0.059979 -3.74896 79 115 115 1752393037
1.06737 -0.040089 -3.75861 79 115 115 1752393037
1.07013 -0.020096 -3.76832 79 115 115 1752393037
1.0729 0 -3.77807 79 115 115 1752393037
1.0693 0.020081 -3.7654 255 255 255 1752393037
1.07208 0.040266 -3.7752 255 255 255 1752393037
1.07488 0.060556 -3.78505 255 255 255 1752393037
1.07769 0.080953 -3.79495 255 255 255 1752393037
1.08052 0.101457 -3.8049 255 255 255 1752393037
1.08336 0.122068 -3.81491 255 255 255 1752393037
1.08621 0.142789 -3.82497 255 255 255 1752393037
1.08908 0.163618 -3.83508 255 255 255 1752393037
1.09197 0.184559 -3.84524 255 255 255 1752393037
1.09487 0.20561 -3.85546 255 255 255 1752393037
1.09779 0.226774 -3.86574 255 255 255 1752393037
1.10072 0.24805 -3.87607 255 255 255 1752393037
1.10367 0.269441 -3.88645 255 255 255 1752393037
1.10664 0.290947 -3.89689 255 255 255 1752393037
1.10962 0.312569 -3.90739 255 255 255 1752393037
1.11261 0.334307 -3.91794 255 255 255 1752393037
1.11563 0.356163 -3.92855 255 255 255 1752393037
1.11866 0.378138 -3.93922 255 255 255 1752393037
1.1217 0.400232 -3.94994 255 255 255 1752393037
1.12477 0.422447 -3.96073 255 255 255 1752393037
1.12785 0.444784 -3.97157 255 255 255 1752393037
1.13094 0.467243 -3.98247 255 255 255 1752393037
1.13406 0.489826 -3.99343 255 255 255 1752393037
1.13718 0.512534 -4.00446 255 255 255 1752393037
1.14033 0.535367 -4.01554 255 255 255 1752393037
1.1435 0.558328 -4.02669 255 255 255 1752393037
0.909396 -1.26305 -3.15785 79 115 115 1752393037
0.911368 -1.24891 -3.1647 79 115 115 1752393037
0.913348 -1.23471 -3.17158 79 115 115 1752393037
0.915338 -1.22045 -3.17848 79 115 115 1752393037
0.917336 -1.20613 -3.18542 79 115 115 1752393037
0.919342 -1.19174 -3.19239 79 115 115 1752393037
0.921358 -1.17729 -3.19939 79 115 115 1752393037
0.923382 -1.16278 -3.20642 79 115 115 1752393037
0.925416 -1.1482 -3.21348 79 115 115 1752393037
0.927458 -1.13356 -3.22057 79 115 115 1752393037
0.929509 -1.11885 -3.22769 79 115 115 1752393037
0.931569 -1.10408 -3.23485 79 115 115 1752393037
0.933639 -1.08924 -3.24203 79 115 115 1752393037
0.935718 -1.07434 -3.24925 79 115 115 1752393037
0.937806 -1.05937 -3.2565 79 115 115 1752393037
0.939903 -1.04434 -3.26378 79 115 115 1752393037
0.94201 -1.02923 -3.2711 79 115 115 1752393037
0.944126 -1.01406 -3.27845 79 115 115 1752393037
0.946252 -0.998821 -3.28583 79 115 115 1752393037
0.948387 -0.983512 -3.29325 79 115 115 1752393037
0.950532 -0.968135 -3.30069 79 115 115 1752393037
0.952687 -0.952687 -3.30818 79 115 115 1752393037
0.954851 -0.937169 -3.31569 79 115 115 1752393037
0.957026 -0.92158 -3.32324 79 115 115 1752393037
0.95921 -0.905921 -3.33083 79 115 115 1752393037
0.961404 -0.890189 -3.33845 79 115 115 1752393037
0.963609 -0.874386 -3.3461 79 115 115 1752393037
0.965823 -0.85851 -3.35379 79 115 115 1752393037
0.968048 -0.84256 -3.36152 79 115 115 1752393037
0.970283 -0.826537 -3.36928 79 115 115 1752393037
0.972528 -0.81044 -3.37707 79 115 115 1752393037
0.974784 -0.794268 -3.38491 79 115 115 1752393037
0.97705 -0.778021 -3.39278 79 115 115 1752393037
0.979327 -0.761699 -3.40068 79 115 115 1752393037
0.981614 -0.7453 -3.40863 79 115 115 1752393037
0.983913 -0.728824 -3.41661 79 115 115 1752393037
0.986222 -0.712271 -3.42462 79 115 115 1752393037
0.988541 -0.69564 -3.43268 79 115 115 1752393037
0.990872 -0.678931 -3.44077 79 115 115 1752393037
0.993214 -0.662142 -3.4489 79 115 115 1752393037
0.995567 -0.645275 -3.45708 79 115 115 1752393037
0.997931 -0.628327 -3.46528 79 115 115 1752393037
1.00031 -0.611298 -3.47353 79 115 115 1752393037
1.00269 -0.594188 -3.48182 79 115 115 1752393037
1.00509 -0.576996 -3.49015 79 115 115 1752393037
1.0075 -0.559722 -3.49851 79 115 115 1752393037
1.00992 -0.542365 -3.50692 79 115 115 1752393037
1.01235 -0.524924 -3.51537 79 115 115 1752393037
1.0148 -0.507399 -3.52386 79 115 115 1752393037
1.01725 -0.489789 -3.53239 79 115 115 1752393037
1.01972 -0.472094 -3.54096 79 115 115 1752393037
1.0222 -0.454312 -3.54957 79 115 115 1752393037
1.0247 -0.436444 -3.55822 79 115 115 1752393037
1.0272 -0.418489 -3.56692 79 115 115 1752393037
1.02972 -0.400445 -3.57566 79 115 115 1752393037
1.03225 -0.382313 -3.58444 79 115 115 1752393037
1.03479 -0.364092 -3.59327 79 115 115 1752393037
1.03734 -0.345781 -3.60214 79 115 115 1752393037
1.03991 -0.327379 -3.61105 79 115 115 1752393037
1.04249 -0.308885 -3.62001 79 115 115 1752393037
1.04508 -0.2903 -3.62901 79 115 115 1752393037
1.04769 -0.271622 -3.63806 79 115 115 1752393037
1.0503 -0.252851 -3.64715 79 115 115 1752393037
1.05294 -0.233986 -3.65629 79 115 115 1752393037
1.05558 -0.215026 -3.66547 79 115 115 1752393037
1.05824 -0.19597 -3.6747 79 115 115 1752393037
1.06091 -0.176818 -3.68398 79 115 115 1752393037
1.06359 -0.15757 -3.6933 79 115 115 1752393037
1.06629 -0.138223 -3.70267 79 115 115 1752393037
1.06901 -0.118778 -3.71209 79 115 115 1752393037
1.07173 -0.099234 -3.72156 79 115 115 1752393037
1.07447 -0.07959 -3.73107 79 115 115 1752393037
1.07723 -0.059846 -3.74063 79 115 115 1752393037
1.07999 -0.04 -3.75025 79 115 115 1752393037
1.08278 -0.020051 -3.75991 79 115 115 1752393037
1.08557 0 -3.76962 79 115 115 1752393037
1.08193 0.020036 -3.75695 255 255 255 1752393037
1.08474 0.040175 -3.76671 255 255 255 1752393037
1.08756 0.06042 -3.77651 255 255 255 1752393037
1.0904 0.08077 -3.78637 255 255 255 1752393037
1.09325 0.101227 -3.79628 255 255 255 1752393037
1.09612 0.121791 -3.80624 255 255 255 1752393037
1.099 0.142463 -3.81625 255 255 255 1752393037
1.1019 0.163245 -3.82632 255 255 255 1752393037
1.10482 0.184136 -3.83644 255 255 255 1752393037
1.10775 0.205138 -3.84661 255 255 255 1752393037
1.11069 0.226252 -3.85684 255 255 255 1752393037
1.11365 0.247478 -3.86712 255 255 255 1752393037
1.11663 0.268818 -3.87745 255 255 255 1752393037
1.11962 0.290272 -3.88785 255 255 255 1752393037
1.12263 0.311841 -3.89829 255 255 255 1752393037
1.12565 0.333527 -3.9088 255 255 255 1752393037
1.12869 0.35533 -3.91936 255 255 255 1752393037
1.13175 0.377251 -3.92997 255 255 255 1752393037
1.13483 0.399291 -3.94065 255 255 255 1752393037
1.13792 0.421451 -3.95138 255 255 255 1752393037
1.14102 0.443732 -3.96217 255 255 255 1752393037
1.14415 0.466135 -3.97303 255 255 255 1752393037
1.14729 0.488661 -3.98394 255 255 255 1752393037
1.15045 0.511312 -3.99491 255 255 255 1752393037
1.15363 0.534087 -4.00594 255 255 255 1752393037
1.15682 0.556989 -4.01703 255 255 255 1752393037
0.920301 -1.26069 -3.15194 79 115 115 1752393037
0.922294 -1.24657 -3.15877 79 115 115 1752393037
0.924294 -1.23239 -3.16562 79 115 115 1752393037
0.926303 -1.21815 -3.1725 79 115 115 1752393037
0.928322 -1.20385 -3.17941 79 115 115 1752393037
0.930348 -1.18949 -3.18635 79 115 115 1752393037
0.932384 -1.17506 -3.19332 79 115 115 1752393037
0.934429 -1.16057 -3.20033 79 115 115 1752393037
0.936483 -1.14602 -3.20736 79 115 115 1752393037
0.938545 -1.1314 -3.21443 79 115 115 1752393037
0.940617 -1.11671 -3.22152 79 115 115 1752393037
0.942698 -1.10197 -3.22865 79 115 115 1752393037
0.944788 -1.08715 -3.23581 79 115 115 1752393037
0.946888 -1.07228 -3.243 79 115 115 1752393037
0.948997 -1.05733 -3.25022 79 115 115 1752393037
0.951115 -1.04232 -3.25748 79 115 115 1752393037
0.953243 -1.02724 -3.26476 79 115 115 1752393037
0.95538 -1.01209 -3.27208 79 115 115 1752393037
0.957527 -0.996877 -3.27944 79 115 115 1752393037
0.959684 -0.981594 -3.28682 79 115 115 1752393037
0.96185 -0.966242 -3.29424 79 115 115 1752393037
0.964026 -0.95082 -3.30169 79 115 115 1752393037
0.966212 -0.935329 -3.30918 79 115 115 1752393037
0.968408 -0.919766 -3.3167 79 115 115 1752393037
0.970614 -0.904133 -3.32426 79 115 115 1752393037
0.97283 -0.888429 -3.33185 79 115 115 1752393037
0.975056 -0.872653 -3.33947 79 115 115 1752393037
0.977292 -0.856804 -3.34713 79 115 115 1752393037
0.979539 -0.840883 -3.35483 79 115 115 1752393037
0.981796 -0.824888 -3.36256 79 115 115 1752393037
0.984064 -0.808819 -3.37032 79 115 115 1752393037
0.986341 -0.792676 -3.37812 79 115 115 1752393037
0.98863 -0.776458 -3.38596 79 115 115 1752393037
0.990929 -0.760165 -3.39384 79 115 115 1752393037
0.993239 -0.743795 -3.40175 79 115 115 1752393037
0.99556 -0.727349 -3.40969 79 115 115 1752393037
0.997891 -0.710827 -3.41768 79 115 115 1752393037
1.00023 -0.694226 -3.4257 79 115 115 1752393037
1.00259 -0.677547 -3.43376 79 115 115 1752393037
1.00495 -0.66079 -3.44186 79 115 115 1752393037
1.00733 -0.643954 -3.45 79 115 115 1752393037
1.00971 -0.627037 -3.45817 79 115 115 1752393037
1.01211 -0.610041 -3.46639 79 115 115 1752393037
1.01452 -0.592963 -3.47464 79 115 115 1752393037
1.01694 -0.575804 -3.48293 79 115 115 1752393037
1.01938 -0.558563 -3.49127 79 115 115 1752393037
1.02182 -0.541239 -3.49964 79 115 115 1752393037
1.02428 -0.523831 -3.50805 79 115 115 1752393037
1.02675 -0.50634 -3.5165 79 115 115 1752393037
1.02923 -0.488765 -3.525 79 115 115 1752393037
1.03172 -0.471104 -3.53353 79 115 115 1752393037
1.03422 -0.453358 -3.54211 79 115 115 1752393037
1.03674 -0.435525 -3.55073 79 115 115 1752393037
1.03927 -0.417605 -3.55939 79 115 115 1752393037
1.04181 -0.399597 -3.56809 79 115 115 1752393037
1.04436 -0.381502 -3.57683 79 115 115 1752393037
1.04693 -0.363317 -3.58562 79 115 115 1752393037
1.04951 -0.345043 -3.59446 79 115 115 1752393037
1.0521 -0.326679 -3.60333 79 115 115 1752393037
1.0547 -0.308223 -3.61225 79 115 115 1752393037
1.05732 -0.289676 -3.62121 79 115 115 1752393037
1.05995 -0.271037 -3.63022 79 115 115 1752393037
1.06259 -0.252305 -3.63927 79 115 115 1752393037
1.06525 -0.233479 -3.64837 79 115 115 1752393037
1.06792 -0.214559 -3.65752 79 115 115 1752393037
1.0706 -0.195544 -3.6667 79 115 115 1752393037
1.0733 -0.176433 -3.67594 79 115 115 1752393037
1.07601 -0.157225 -3.68522 79 115 115 1752393037
1.07873 -0.13792 -3.69455 79 115 115 1752393037
1.08147 -0.118517 -3.70393 79 115 115 1752393037
1.08422 -0.099016 -3.71336 79 115 115 1752393037
1.08699 -0.079415 -3.72283 79 115 115 1752393037
1.08977 -0.059713 -3.73235 79 115 115 1752393037
1.09256 -0.039911 -3.74192 79 115 115 1752393037
1.09537 -0.020007 -3.75154 79 115 115 1752393037
1.09819 0 -3.76121 79 115 115 1752393037
1.09581 0.020015 -3.75306 170 170 170 1752393037
1.09733 0.040085 -3.75826 255 255 255 1752393037
1.10018 0.060284 -3.76802 255 255 255 1752393037
1.10305 0.080588 -3.77783 255 255 255 1752393037
1.10593 0.100998 -3.7877 255 255 255 1752393037
1.10882 0.121515 -3.79761 255 255 255 1752393037
1.11173 0.142139 -3.80758 255 255 255 1752393037
1.11466 0.162873 -3.8176 255 255 255 1752393037
1.1176 0.183715 -3.82767 255 255 255 1752393037
1.12056 0.204668 -3.8378 255 255 255 1752393037
1.12353 0.225732 -3.84798 255 255 255 1752393037
1.12652 0.246908 -3.85821 255 255 255 1752393037
1.12952 0.268197 -3.8685 255 255 255 1752393037
1.13254 0.2896 -3.87884 255 255 255 1752393037
1.13558 0.311117 -3.88924 255 255 255 1752393037
1.13863 0.33275 -3.8997 255 255 255 1752393037
1.1417 0.3545 -3.91021 255 255 255 1752393037
1.14479 0.376368 -3.92077 255 255 255 1752393037
1.14789 0.398354 -3.9314 255 255 255 1752393037
1.15101 0.420459 -3.94208 255 255 255 1752393037
1.15414 0.442685 -3.95283 255 255 255 1752393037
1.1573 0.465032 -3.96363 255 255 255 1752393037
1.16047 0.487502 -3.97448 255 255 255 1752393037
1.16366 0.510095 -3.9854 255 255 255 1752393037
1.16686 0.532813 -3.99638 255 255 255 1752393037
1.17008 0.555656 -4.00742 255 255 255 1752393037
0.931167 -1.25833 -3.14606 79 115 115 1752393037
0.933178 -1.24424 -3.15285 79 115 115 1752393037
0.935199 -1.23008 -3.15968 79 115 115 1752393037
0.937228 -1.21586 -3.16654 79 115 115 1752393037
0.939266 -1.20158 -3.17342 79 115 115 1752393037
0.941313 -1.18724 -3.18034 79 115 115 1752393037
0.943369 -1.17284 -3.18728 79 115 115 1752393037
0.945434 -1.15837 -3.19426 79 115 115 1752393037
0.947508 -1.14384 -3.20127 79 115 115 1752393037
0.949591 -1.12924 -3.2083 79 115 115 1752393037
0.951683 -1.11458 -3.21537 79 115 115 1752393037
0.953784 -1.09986 -3.22247 79 115 115 1752393037
0.955895 -1.08507 -3.22961 79 115 115 1752393037
0.958015 -1.07021 -3.23677 79 115 115 1752393037
0.960145 -1.05529 -3.24396 79 115 115 1752393037
0.962284 -1.04031 -3.25119 79 115 115 1752393037
0.964432 -1.02525 -3.25845 79 115 115 1752393037
0.966591 -1.01013 -3.26574 79 115 115 1752393037
0.968759 -0.994941 -3.27307 79 115 115 1752393037
0.970936 -0.979683 -3.28042 79 115 115 1752393037
0.973124 -0.964357 -3.28781 79 115 115 1752393037
0.975321 -0.948961 -3.29524 79 115 115 1752393037
0.977528 -0.933495 -3.3027 79 115 115 1752393037
0.979745 -0.91796 -3.31019 79 115 115 1752393037
0.981973 -0.902353 -3.31771 79 115 115 1752393037
0.98421 -0.886676 -3.32527 79 115 115 1752393037
0.986458 -0.870927 -3.33287 79 115 115 1752393037
0.988716 -0.855106 -3.3405 79 115 115 1752393037
0.990985 -0.839212 -3.34816 79 115 115 1752393037
0.993263 -0.823245 -3.35586 79 115 115 1752393037
0.995553 -0.807205 -3.36359 79 115 115 1752393037
0.997853 -0.79109 -3.37136 79 115 115 1752393037
1.00016 -0.774901 -3.37917 79 115 115 1752393037
1.00248 -0.758637 -3.38701 79 115 115 1752393037
1.00482 -0.742297 -3.39489 79 115 115 1752393037
1.00716 -0.725881 -3.40281 79 115 115 1752393037
1.00951 -0.709388 -3.41076 79 115 115 1752393037
1.01188 -0.692818 -3.41875 79 115 115 1752393037
1.01425 -0.67617 -3.42678 79 115 115 1752393037
1.01664 -0.659443 -3.43484 79 115 115 1752393037
1.01904 -0.642638 -3.44295 79 115 115 1752393037
1.02145 -0.625753 -3.45109 79 115 115 1752393037
1.02387 -0.608788 -3.45927 79 115 115 1752393037
1.0263 -0.591743 -3.46749 79 115 115 1752393037
1.02875 -0.574616 -3.47575 79 115 115 1752393037
1.0312 -0.557408 -3.48405 79 115 115 1752393037
1.03367 -0.540117 -3.49238 79 115 115 1752393037
1.03615 -0.522743 -3.50076 79 115 115 1752393037
1.03864 -0.505286 -3.50918 79 115 115 1752393037
1.04115 -0.487744 -3.51764 79 115 115 1752393037
1.04366 -0.470118 -3.52614 79 115 115 1752393037
1.04619 -0.452406 -3.53468 79 115 115 1752393037
1.04873 -0.434609 -3.54326 79 115 115 1752393037
1.05128 -0.416725 -3.55188 79 115 115 1752393037
1.05385 -0.398753 -3.56055 79 115 115 1752393037
1.05642 -0.380694 -3.56926 79 115 115 1752393037
1.05902 -0.362546 -3.57801 79 115 115 1752393037
1.06162 -0.344309 -3.5868 79 115 115 1752393037
1.06423 -0.325981 -3.59564 79 115 115 1752393037
1.06686 -0.307564 -3.60452 79 115 115 1752393037
1.0695 -0.289055 -3.61345 79 115 115 1752393037
1.07216 -0.270454 -3.62242 79 115 115 1752393037
1.07483 -0.251761 -3.63143 79 115 115 1752393037
1.07751 -0.232975 -3.64049 79 115 115 1752393037
1.0802 -0.214094 -3.64959 79 115 115 1752393037
1.08291 -0.195119 -3.65874 79 115 115 1752393037
1.08563 -0.176049 -3.66794 79 115 115 1752393037
1.08837 -0.156882 -3.67718 79 115 115 1752393037
1.09112 -0.137618 -3.68647 79 115 115 1752393037
1.09388 -0.118257 -3.69581 79 115 115 1752393037
1.09666 -0.098798 -3.70519 79 115 115 1752393037
1.09945 -0.07924 -3.71462 79 115 115 1752393037
1.10225 -0.059581 -3.7241 79 115 115 1752393037
1.10508 -0.039823 -3.73363 79 115 115 1752393037
1.10791 -0.019962 -3.74321 79 115 115 1752393037
1.11076 0 -3.75283 79 115 115 1752393037
1.11131 0.020024 -3.75468 170 170 170 1752393037
1.10987 0.039995 -3.74985 255 255 255 1752393037
1.11275 0.060149 -3.75956 255 255 255 1752393037
1.11564 0.080407 -3.76933 255 255 255 1752393037
1.11855 0.10077 -3.77915 255 255 255 1752393037
1.12147 0.12124 -3.78902 255 255 255 1752393037
1.12441 0.141817 -3.79894 255 255 255 1752393037
1.12736 0.162502 -3.80892 255 255 255 1752393037
1.13033 0.183296 -3.81894 255 255 255 1752393037
1.13331 0.2042 -3.82903 255 255 255 1752393037
1.13631 0.225214 -3.83916 255 255 255 1752393037
1.13933 0.24634 -3.84934 255 255 255 1752393037
1.14236 0.267579 -3.85959 255 255 255 1752393037
1.1454 0.288931 -3.86988 255 255 255 1752393037
1.14847 0.310396 -3.88023 255 255 255 1752393037
1.15155 0.331978 -3.89064 255 255 255 1752393037
1.15464 0.353675 -3.9011 255 255 255 1752393037
1.15776 0.375489 -3.91162 255 255 255 1752393037
1.16089 0.397421 -3.9222 255 255 255 1752393037
1.16403 0.419472 -3.93283 255 255 255 1752393037
1.1672 0.441643 -3.94352 255 255 255 1752393037
1.17038 0.463934 -3.95427 255 255 255 1752393037
1.17358 0.486348 -3.96508 255 255 255 1752393037
1.1768 0.508884 -3.97594 255 255 255 1752393037
1.18003 0.531545 -3.98687 255 255 255 1752393037
1.18328 0.55433 -3.99786 255 255 255 1752393037
0.941991 -1.25599 -3.14019 79 115 115 1752393037
0.944023 -1.24191 -3.14697 79 115 115 1752393037
0.946063 -1.22778 -3.15377 79 115 115 1752393037
0.948112 -1.21358 -3.1606 79 115 115 1752393037
0.950169 -1.19932 -3.16746 79 115 115 1752393037
0.952236 -1.185 -3.17435 79 115 115 1752393037
0.954312 -1.17062 -3.18127 79 115 115 1752393037
0.956397 -1.15618 -3.18822 79 115 115 1752393037
0.958491 -1.14167 -3.1952 79 115 115 1752393037
0.960594 -1.1271 -3.20221 79 115 115 1752393037
0.962706 -1.11246 -3.20925 79 115 115 1752393037
0.964828 -1.09776 -3.21632 79 115 115 1752393037
0.966959 -1.08299 -3.22343 79 115 115 1752393037
0.9691 -1.06816 -3.23056 79 115 115 1752393037
0.97125 -1.05327 -3.23773 79 115 115 1752393037
0.973409 -1.0383 -3.24493 79 115 115 1752393037
0.975579 -1.02327 -3.25216 79 115 115 1752393037
0.977758 -1.00818 -3.25942 79 115 115 1752393037
0.979946 -0.993012 -3.26672 79 115 115 1752393037
0.982145 -0.97778 -3.27405 79 115 115 1752393037
0.984353 -0.962479 -3.28141 79 115 115 1752393037
0.986572 -0.947109 -3.28881 79 115 115 1752393037
0.9888 -0.931669 -3.29624 79 115 115 1752393037
0.991039 -0.91616 -3.3037 79 115 115 1752393037
0.993287 -0.90058 -3.31119 79 115 115 1752393037
0.995546 -0.88493 -3.31872 79 115 115 1752393037
0.997815 -0.869208 -3.32629 79 115 115 1752393037
1.0001 -0.853414 -3.33389 79 115 115 1752393037
1.00239 -0.837548 -3.34152 79 115 115 1752393037
1.00469 -0.821609 -3.34919 79 115 115 1752393037
1.007 -0.805597 -3.35689 79 115 115 1752393037
1.00932 -0.789511 -3.36463 79 115 115 1752393037
