ply
format ascii 1.0
comment PCL generated
obj_info is_cyberware_data 0
obj_info is_mesh 0
obj_info is_warped 0
obj_info is_interlaced 0
obj_info num_cols 30000
obj_info num_rows 1
obj_info echo_rgb_offset_x 0
obj_info echo_rgb_offset_y 0
obj_info echo_rgb_offset_z 0
obj_info echo_rgb_frontfocus 0.0
obj_info echo_rgb_backfocus 0.0
obj_info echo_rgb_pixelsize 0.0
obj_info echo_rgb_centerpixel 0
obj_info echo_frames 1
obj_info echo_lgincr 0.0
element vertex 964
property float x
property float y
property float z
property uchar red
property uchar green
property uchar blue
property uint label
end_header
0.225476 0.445384 -2.08789 102 91 80 1752393037
0.228828 0.463306 -2.11893 102 91 80 1752393037
0.232282 0.481769 -2.15091 102 91 80 1752393037
0.235841 0.500798 -2.18387 102 91 80 1752393037
0.239511 0.520419 -2.21785 102 91 80 1752393037
0.243297 0.54066 -2.25291 102 91 80 1752393037
0.243146 0.552333 -2.25152 102 91 80 1752393037
0.242511 0.562865 -2.24563 102 91 80 1752393037
0.241879 0.573343 -2.23978 102 91 80 1752393037
0.24125 0.583765 -2.23396 102 91 80 1752393037
0.240624 0.594134 -2.22816 102 91 80 1752393037
0.240002 0.60445 -2.2224 102 91 80 1752393037
0.239383 0.614712 -2.21667 102 91 80 1752393037
0.238767 0.624921 -2.21096 102 91 80 1752393037
0.238154 0.635078 -2.20529 102 91 80 1752393037
0.237545 0.645183 -2.19964 102 91 80 1752393037
0.236938 0.655236 -2.19403 102 91 80 1752393037
0.236334 0.665238 -2.18844 102 91 80 1752393037
0.235734 0.675189 -2.18288 102 91 80 1752393037
0.235137 0.68509 -2.17735 102 91 80 1752393037
0.234542 0.694941 -2.17184 102 91 80 1752393037
0.233951 0.704742 -2.16637 102 91 80 1752393037
0.233363 0.714493 -2.16092 102 91 80 1752393037
0.232777 0.724196 -2.1555 102 91 80 1752393037
0.232195 0.733851 -2.15011 102 91 80 1752393037
0.231615 0.743457 -2.14474 102 91 80 1752393037
0.231039 0.753015 -2.1394 102 91 80 1752393037
0.230465 0.762526 -2.13409 102 91 80 1752393037
0.229946 0.772164 -2.12928 102 91 80 1752393037
0.229734 0.782799 -2.12732 102 91 80 1752393037
0.229523 0.793413 -2.12537 102 91 80 1752393037
0.229312 0.804009 -2.12341 102 91 80 1752393037
0.229102 0.814584 -2.12146 102 91 80 1752393037
0.228892 0.825141 -2.11952 102 91 80 1752393037
0.228682 0.835678 -2.11758 102 91 80 1752393037
0.132318 -0.472564 -1.18149 188 179 133 1752393037
0.133044 -0.468822 -1.18798 188 179 133 1752393037
0.133778 -0.465038 -1.19453 188 179 133 1752393037
0.13452 -0.461212 -1.20116 188 179 133 1752393037
0.135271 -0.457343 -1.20786 188 179 133 1752393037
0.136029 -0.453431 -1.21464 188 179 133 1752393037
0.136797 -0.449475 -1.22149 188 179 133 1752393037
0.137573 -0.445474 -1.22842 188 179 133 1752393037
0.138358 -0.441427 -1.23543 188 179 133 1752393037
0.139152 -0.437334 -1.24252 188 179 133 1752393037
0.139955 -0.433194 -1.24969 188 179 133 1752393037
0.140767 -0.429006 -1.25694 188 179 133 1752393037
0.141589 -0.424768 -1.26428 188 179 133 1752393037
0.142421 -0.420481 -1.27171 188 179 133 1752393037
0.143262 -0.416143 -1.27922 188 179 133 1752393037
0.144114 -0.411754 -1.28682 188 179 133 1752393037
0.144975 -0.407312 -1.29452 188 179 133 1752393037
0.145847 -0.402817 -1.3023 188 179 133 1752393037
0.14673 -0.398267 -1.31018 188 179 133 1752393037
0.147623 -0.393662 -1.31816 188 179 133 1752393037
0.148527 -0.389 -1.32623 188 179 133 1752393037
0.149443 -0.384282 -1.33441 188 179 133 1752393037
0.15037 -0.379504 -1.34268 188 179 133 1752393037
0.151308 -0.374667 -1.35106 188 179 133 1752393037
0.152258 -0.369769 -1.35954 188 179 133 1752393037
0.15322 -0.364809 -1.36813 188 179 133 1752393037
0.154194 -0.359787 -1.37683 188 179 133 1752393037
0.155181 -0.354699 -1.38564 188 179 133 1752393037
0.156181 -0.349547 -1.39457 188 179 133 1752393037
0.157193 -0.344327 -1.40361 188 179 133 1752393037
0.158219 -0.33904 -1.41277 188 179 133 1752393037
0.159258 -0.333683 -1.42204 188 179 133 1752393037
0.160311 -0.328255 -1.43145 188 179 133 1752393037
0.161377 -0.322755 -1.44097 188 179 133 1752393037
0.162459 -0.317181 -1.45063 188 179 133 1752393037
0.163554 -0.311532 -1.46041 188 179 133 1752393037
0.164665 -0.305807 -1.47033 188 179 133 1752393037
0.165791 -0.300003 -1.48038 188 179 133 1752393037
0.166932 -0.294119 -1.49057 188 179 133 1752393037
0.168089 -0.288153 -1.50091 188 179 133 1752393037
0.169263 -0.282105 -1.51138 188 179 133 1752393037
0.170453 -0.275971 -1.52201 188 179 133 1752393037
0.171659 -0.26975 -1.53278 188 179 133 1752393037
0.172883 -0.263441 -1.54371 188 179 133 1752393037
0.174124 -0.257041 -1.55479 188 179 133 1752393037
0.175384 -0.250548 -1.56604 188 179 133 1752393037
0.176662 -0.243961 -1.57745 188 179 133 1752393037
0.177958 -0.237277 -1.58903 188 179 133 1752393037
0.179274 -0.230495 -1.60077 188 179 133 1752393037
0.180609 -0.223611 -1.61269 188 179 133 1752393037
0.181964 -0.216624 -1.6248 188 179 133 1752393037
0.18334 -0.209532 -1.63708 188 179 133 1752393037
0.184737 -0.202331 -1.64955 188 179 133 1752393037
0.186155 -0.19502 -1.66222 188 179 133 1752393037
0.187595 -0.187595 -1.67508 188 179 133 1752393037
0.189058 -0.180055 -1.68814 188 179 133 1752393037
0.190543 -0.172396 -1.7014 188 179 133 1752393037
0.192053 -0.164616 -1.71488 188 179 133 1752393037
0.193586 -0.156712 -1.72857 188 179 133 1752393037
0.195144 -0.148681 -1.74248 188 179 133 1752393037
0.196727 -0.140519 -1.75662 188 179 133 1752393037
0.198336 -0.132224 -1.77098 188 179 133 1752393037
0.199972 -0.123792 -1.78559 188 179 133 1752393037
0.201634 -0.11522 -1.80043 188 179 133 1752393037
0.203325 -0.106504 -1.81553 188 179 133 1752393037
0.205044 -0.09764 -1.83088 188 179 133 1752393037
0.206793 -0.088626 -1.8465 188 179 133 1752393037
0.208572 -0.079456 -1.86238 188 179 133 1752393037
0.210381 -0.070127 -1.87854 188 179 133 1752393037
0.212222 -0.060635 -1.89498 188 179 133 1752393037
0.214096 -0.050975 -1.91171 188 179 133 1752393037
0.216003 -0.041143 -1.92874 188 179 133 1752393037
0.217945 -0.031135 -1.94607 188 179 133 1752393037
0.219921 -0.020945 -1.96372 188 179 133 1752393037
0.221934 -0.010568 -1.9817 188 179 133 1752393037
0.220376 0 -1.96778 102 91 80 1752393037
0.219722 0.010463 -1.96195 102 91 80 1752393037
0.219072 0.020864 -1.95614 102 91 80 1752393037
0.218426 0.031204 -1.95037 102 91 80 1752393037
0.217784 0.041483 -1.94464 102 91 80 1752393037
0.217145 0.051701 -1.93893 102 91 80 1752393037
0.21651 0.06186 -1.93326 102 91 80 1752393037
0.215879 0.07196 -1.92763 102 91 80 1752393037
0.215252 0.082001 -1.92203 102 91 80 1752393037
0.214628 0.091983 -1.91646 102 91 80 1752393037
0.214007 0.101908 -1.91092 102 91 80 1752393037
0.213391 0.111776 -1.90541 102 91 80 1752393037
0.212778 0.121587 -1.89994 102 91 80 1752393037
0.212168 0.131342 -1.89449 102 91 80 1752393037
0.211562 0.141041 -1.88908 102 91 80 1752393037
0.210959 0.150685 -1.8837 102 91 80 1752393037
0.21036 0.160274 -1.87835 102 91 80 1752393037
0.209764 0.169809 -1.87303 102 91 80 1752393037
0.209172 0.17929 -1.86774 102 91 80 1752393037
0.208582 0.188717 -1.86248 102 91 80 1752393037
0.207997 0.198092 -1.85724 102 91 80 1752393037
0.207414 0.207414 -1.85204 102 91 80 1752393037
0.206835 0.216684 -1.84687 102 91 80 1752393037
0.206259 0.225902 -1.84172 102 91 80 1752393037
0.205686 0.235069 -1.83661 102 91 80 1752393037
0.205116 0.244186 -1.83152 102 91 80 1752393037
0.204549 0.253251 -1.82646 102 91 80 1752393037
0.203986 0.262267 -1.82143 102 91 80 1752393037
0.203425 0.271234 -1.81643 102 91 80 1752393037
0.202868 0.280151 -1.81145 102 91 80 1752393037
0.203949 0.291356 -1.8211 102 91 80 1752393037
0.206589 0.304964 -1.84467 102 91 80 1752393037
0.209298 0.31893 -1.86886 102 91 80 1752393037
0.212079 0.333266 -1.89369 102 91 80 1752393037
0.214935 0.347989 -1.9192 102 91 80 1752393037
0.217868 0.363114 -1.94539 102 91 80 1752393037
0.220883 0.378657 -1.97231 102 91 80 1752393037
0.223983 0.394637 -1.99999 102 91 80 1752393037
0.227171 0.411071 -2.02846 102 91 80 1752393037
0.230451 0.42798 -2.05774 102 91 80 1752393037
0.233827 0.445385 -2.08789 102 91 80 1752393037
0.237303 0.463306 -2.11893 102 91 80 1752393037
0.240885 0.481769 -2.15091 102 91 80 1752393037
0.244576 0.500798 -2.18387 102 91 80 1752393037
0.248382 0.520419 -2.21785 102 91 80 1752393037
0.252308 0.54066 -2.25291 102 91 80 1752393037
0.251887 0.551752 -2.24915 102 91 80 1752393037
0.251229 0.562274 -2.24328 102 91 80 1752393037
0.250575 0.572742 -2.23744 102 91 80 1752393037
0.249924 0.583156 -2.23162 102 91 80 1752393037
0.249277 0.593516 -2.22584 102 91 80 1752393037
0.248633 0.603822 -2.22009 102 91 80 1752393037
0.247992 0.614075 -2.21437 102 91 80 1752393037
0.247354 0.624275 -2.20868 102 91 80 1752393037
0.24672 0.634423 -2.20302 102 91 80 1752393037
0.246089 0.64452 -2.19738 102 91 80 1752393037
0.245462 0.654564 -2.19178 102 91 80 1752393037
0.244837 0.664558 -2.1862 102 91 80 1752393037
0.244216 0.6745 -2.18065 102 91 80 1752393037
0.243597 0.684393 -2.17513 102 91 80 1752393037
0.242982 0.694235 -2.16964 102 91 80 1752393037
0.24237 0.704028 -2.16418 102 91 80 1752393037
0.241761 0.713772 -2.15874 102 91 80 1752393037
0.241156 0.723467 -2.15333 102 91 80 1752393037
0.240553 0.733113 -2.14795 102 91 80 1752393037
0.239953 0.742712 -2.14259 102 91 80 1752393037
0.239356 0.752262 -2.13726 102 91 80 1752393037
0.238762 0.761765 -2.13196 102 91 80 1752393037
0.238239 0.77144 -2.12728 102 91 80 1752393037
0.23802 0.782065 -2.12533 102 91 80 1752393037
0.237801 0.79267 -2.12338 102 91 80 1752393037
0.237583 0.803256 -2.12143 102 91 80 1752393037
0.237365 0.813823 -2.11948 102 91 80 1752393037
0.237148 0.82437 -2.11754 102 91 80 1752393037
0.236931 0.834898 -2.1156 102 91 80 1752393037
0.137044 -0.472564 -1.18149 188 179 133 1752393037
0.137796 -0.468822 -1.18798 188 179 133 1752393037
0.138556 -0.465038 -1.19453 188 179 133 1752393037
0.139324 -0.461212 -1.20116 188 179 133 1752393037
0.140102 -0.457343 -1.20786 188 179 133 1752393037
0.140888 -0.453431 -1.21464 188 179 133 1752393037
0.141682 -0.449475 -1.22149 188 179 133 1752393037
0.142486 -0.445474 -1.22842 188 179 133 1752393037
0.143299 -0.441427 -1.23543 188 179 133 1752393037
0.144122 -0.437334 -1.24252 188 179 133 1752393037
0.144953 -0.433194 -1.24969 188 179 133 1752393037
0.145795 -0.429006 -1.25694 188 179 133 1752393037
0.146646 -0.424768 -1.26428 188 179 133 1752393037
0.147507 -0.420481 -1.27171 188 179 133 1752393037
0.148379 -0.416143 -1.27922 188 179 133 1752393037
0.149261 -0.411754 -1.28682 188 179 133 1752393037
0.150153 -0.407312 -1.29452 188 179 133 1752393037
0.151056 -0.402817 -1.3023 188 179 133 1752393037
0.15197 -0.398267 -1.31018 188 179 133 1752393037
0.152895 -0.393662 -1.31816 188 179 133 1752393037
0.153832 -0.389 -1.32623 188 179 133 1752393037
0.15478 -0.384282 -1.33441 188 179 133 1752393037
0.15574 -0.379504 -1.34268 188 179 133 1752393037
0.156712 -0.374667 -1.35106 188 179 133 1752393037
0.157696 -0.369769 -1.35954 188 179 133 1752393037
0.158692 -0.364809 -1.36813 188 179 133 1752393037
0.159701 -0.359787 -1.37683 188 179 133 1752393037
0.160723 -0.354699 -1.38564 188 179 133 1752393037
0.161758 -0.349547 -1.39457 188 179 133 1752393037
0.162807 -0.344327 -1.40361 188 179 133 1752393037
0.163869 -0.33904 -1.41277 188 179 133 1752393037
0.164945 -0.333683 -1.42205 188 179 133 1752393037
0.166036 -0.328255 -1.43145 188 179 133 1752393037
0.167141 -0.322755 -1.44097 188 179 133 1752393037
0.168261 -0.317181 -1.45063 188 179 133 1752393037
0.169396 -0.311532 -1.46041 188 179 133 1752393037
0.170546 -0.305807 -1.47033 188 179 133 1752393037
0.171712 -0.300003 -1.48038 188 179 133 1752393037
0.172894 -0.294119 -1.49057 188 179 133 1752393037
0.174093 -0.288153 -1.50091 188 179 133 1752393037
0.175308 -0.282105 -1.51138 188 179 133 1752393037
0.17654 -0.275971 -1.52201 188 179 133 1752393037
0.17779 -0.26975 -1.53278 188 179 133 1752393037
0.179057 -0.263441 -1.54371 188 179 133 1752393037
0.180343 -0.257041 -1.55479 188 179 133 1752393037
0.181648 -0.250548 -1.56604 188 179 133 1752393037
0.182971 -0.243961 -1.57745 188 179 133 1752393037
0.184314 -0.237277 -1.58903 188 179 133 1752393037
0.185676 -0.230495 -1.60077 188 179 133 1752393037
0.187059 -0.223611 -1.61269 188 179 133 1752393037
0.188463 -0.216624 -1.6248 188 179 133 1752393037
0.189888 -0.209532 -1.63708 188 179 133 1752393037
0.191335 -0.202331 -1.64955 188 179 133 1752393037
0.192803 -0.19502 -1.66222 188 179 133 1752393037
0.194295 -0.187595 -1.67508 188 179 133 1752393037
0.19581 -0.180055 -1.68814 188 179 133 1752393037
0.197349 -0.172396 -1.7014 188 179 133 1752393037
0.198912 -0.164616 -1.71488 188 179 133 1752393037
0.2005 -0.156712 -1.72857 188 179 133 1752393037
0.202113 -0.148681 -1.74248 188 179 133 1752393037
0.203753 -0.140519 -1.75662 188 179 133 1752393037
0.205419 -0.132224 -1.77098 188 179 133 1752393037
0.207113 -0.123792 -1.78559 188 179 133 1752393037
0.208836 -0.11522 -1.80043 188 179 133 1752393037
0.210587 -0.106504 -1.81553 188 179 133 1752393037
0.212367 -0.09764 -1.83088 188 179 133 1752393037
0.214178 -0.088626 -1.8465 188 179 133 1752393037
0.216021 -0.079456 -1.86238 188 179 133 1752393037
0.217895 -0.070127 -1.87854 188 179 133 1752393037
0.219802 -0.060635 -1.89498 188 179 133 1752393037
0.221743 -0.050975 -1.91171 188 179 133 1752393037
0.223718 -0.041143 -1.92874 188 179 133 1752393037
0.225728 -0.031135 -1.94607 188 179 133 1752393037
0.227776 -0.020945 -1.96372 188 179 133 1752393037
0.22986 -0.010568 -1.9817 188 179 133 1752393037
0.227974 0 -1.96543 102 91 80 1752393037
0.227298 0.01045 -1.95961 102 91 80 1752393037
0.226627 0.020839 -1.95382 102 91 80 1752393037
0.225959 0.031167 -1.94806 102 91 80 1752393037
0.225295 0.041434 -1.94234 102 91 80 1752393037
0.224635 0.05164 -1.93665 102 91 80 1752393037
0.22398 0.061787 -1.931 102 91 80 1752393037
0.223327 0.071875 -1.92537 102 91 80 1752393037
0.222679 0.081905 -1.91978 102 91 80 1752393037
0.222034 0.091876 -1.91423 102 91 80 1752393037
0.221393 0.10179 -1.9087 102 91 80 1752393037
0.220756 0.111647 -1.90321 102 91 80 1752393037
0.220123 0.121447 -1.89775 102 91 80 1752393037
0.219493 0.131191 -1.89231 102 91 80 1752393037
0.218866 0.140879 -1.88691 102 91 80 1752393037
0.218243 0.150513 -1.88154 102 91 80 1752393037
0.217624 0.160091 -1.8762 102 91 80 1752393037
0.217008 0.169616 -1.8709 102 91 80 1752393037
0.216396 0.179087 -1.86562 102 91 80 1752393037
0.215788 0.188504 -1.86037 102 91 80 1752393037
0.215182 0.197869 -1.85515 102 91 80 1752393037
0.21458 0.207181 -1.84996 102 91 80 1752393037
0.213981 0.216441 -1.8448 102 91 80 1752393037
0.213386 0.22565 -1.83967 102 91 80 1752393037
0.212794 0.234807 -1.83456 102 91 80 1752393037
0.212205 0.243914 -1.82949 102 91 80 1752393037
0.21162 0.252971 -1.82444 102 91 80 1752393037
0.211037 0.261977 -1.81942 102 91 80 1752393037
0.210458 0.270935 -1.81442 102 91 80 1752393037
0.209882 0.279843 -1.80946 102 91 80 1752393037
0.211233 0.291356 -1.8211 102 91 80 1752393037
0.213967 0.304964 -1.84467 102 91 80 1752393037
0.216773 0.31893 -1.86886 102 91 80 1752393037
0.219653 0.333266 -1.89369 102 91 80 1752393037
0.222611 0.347989 -1.9192 102 91 80 1752393037
0.225649 0.363114 -1.94539 102 91 80 1752393037
0.228772 0.378657 -1.97231 102 91 80 1752393037
0.231982 0.394637 -1.99999 102 91 80 1752393037
0.235284 0.411071 -2.02846 102 91 80 1752393037
0.238681 0.42798 -2.05774 102 91 80 1752393037
0.242178 0.445385 -2.08789 102 91 80 1752393037
0.245778 0.463306 -2.11893 102 91 80 1752393037
0.249488 0.481769 -2.15091 102 91 80 1752393037
0.253311 0.500798 -2.18387 102 91 80 1752393037
0.257252 0.520419 -2.21785 102 91 80 1752393037
0.261292 0.540603 -2.25267 102 91 80 1752393037
0.260608 0.551172 -2.24678 102 91 80 1752393037
0.259929 0.561685 -2.24092 102 91 80 1752393037
0.259253 0.572144 -2.2351 102 91 80 1752393037
0.25858 0.582548 -2.2293 102 91 80 1752393037
0.257911 0.592899 -2.22353 102 91 80 1752393037
0.257245 0.603196 -2.21779 102 91 80 1752393037
0.256583 0.61344 -2.21208 102 91 80 1752393037
0.255924 0.623631 -2.2064 102 91 80 1752393037
0.255269 0.63377 -2.20075 102 91 80 1752393037
0.254616 0.643858 -2.19513 102 91 80 1752393037
0.253968 0.653894 -2.18953 102 91 80 1752393037
0.253322 0.663879 -2.18397 102 91 80 1752393037
0.25268 0.673813 -2.17843 102 91 80 1752393037
0.252041 0.683697 -2.17292 102 91 80 1752393037
0.251405 0.693532 -2.16744 102 91 80 1752393037
0.250773 0.703316 -2.16199 102 91 80 1752393037
0.250143 0.713052 -2.15656 102 91 80 1752393037
0.249517 0.722739 -2.15116 102 91 80 1752393037
0.248894 0.732377 -2.14579 102 91 80 1752393037
0.248274 0.741968 -2.14044 102 91 80 1752393037
0.247657 0.751511 -2.13513 102 91 80 1752393037
0.247043 0.761006 -2.12983 102 91 80 1752393037
0.246516 0.770717 -2.12529 102 91 80 1752393037
0.24629 0.781333 -2.12334 102 91 80 1752393037
0.246064 0.791929 -2.12139 102 91 80 1752393037
0.245838 0.802506 -2.11944 102 91 80 1752393037
0.245613 0.813063 -2.1175 102 91 80 1752393037
0.245388 0.823601 -2.11557 102 91 80 1752393037
0.245164 0.83412 -2.11363 102 91 80 1752393037
0.141769 -0.472564 -1.18149 188 179 133 1752393037
0.142547 -0.468822 -1.18798 188 179 133 1752393037
0.143334 -0.465038 -1.19453 188 179 133 1752393037
0.144129 -0.461212 -1.20116 188 179 133 1752393037
0.144933 -0.457343 -1.20786 188 179 133 1752393037
0.145746 -0.453431 -1.21464 188 179 133 1752393037
0.146568 -0.449475 -1.22149 188 179 133 1752393037
0.1474 -0.445474 -1.22842 188 179 133 1752393037
0.148241 -0.441427 -1.23543 188 179 133 1752393037
0.149091 -0.437334 -1.24252 188 179 133 1752393037
0.149952 -0.433194 -1.24969 188 179 133 1752393037
0.150822 -0.429005 -1.25694 188 179 133 1752393037
0.151703 -0.424768 -1.26428 188 179 133 1752393037
0.152594 -0.420481 -1.27171 188 179 133 1752393037
0.153495 -0.416143 -1.27922 188 179 133 1752393037
0.154408 -0.411754 -1.28682 188 179 133 1752393037
0.155331 -0.407312 -1.29452 188 179 133 1752393037
0.156265 -0.402817 -1.3023 188 179 133 1752393037
0.157211 -0.398267 -1.31018 188 179 133 1752393037
0.158168 -0.393662 -1.31816 188 179 133 1752393037
0.159137 -0.389 -1.32623 188 179 133 1752393037
0.160117 -0.384282 -1.33441 188 179 133 1752393037
0.16111 -0.379504 -1.34268 188 179 133 1752393037
0.162115 -0.374667 -1.35106 188 179 133 1752393037
0.163133 -0.369769 -1.35954 188 179 133 1752393037
0.164164 -0.364809 -1.36813 188 179 133 1752393037
0.165208 -0.359787 -1.37683 188 179 133 1752393037
0.166265 -0.354699 -1.38564 188 179 133 1752393037
0.167336 -0.349547 -1.39457 188 179 133 1752393037
0.168421 -0.344327 -1.40361 188 179 133 1752393037
0.16952 -0.33904 -1.41277 188 179 133 1752393037
0.170633 -0.333683 -1.42204 188 179 133 1752393037
0.171761 -0.328255 -1.43145 188 179 133 1752393037
0.172904 -0.322755 -1.44097 188 179 133 1752393037
0.174063 -0.317181 -1.45063 188 179 133 1752393037
0.175237 -0.311532 -1.46041 188 179 133 1752393037
0.176427 -0.305807 -1.47033 188 179 133 1752393037
0.177633 -0.300003 -1.48038 188 179 133 1752393037
0.178856 -0.294119 -1.49057 188 179 133 1752393037
0.180096 -0.288153 -1.50091 188 179 133 1752393037
0.181353 -0.282104 -1.51138 188 179 133 1752393037
0.182628 -0.275971 -1.52201 188 179 133 1752393037
0.183921 -0.26975 -1.53278 188 179 133 1752393037
0.185232 -0.263441 -1.54371 188 179 133 1752393037
0.186562 -0.257041 -1.55479 188 179 133 1752393037
0.187911 -0.250548 -1.56604 188 179 133 1752393037
0.18928 -0.243961 -1.57745 188 179 133 1752393037
0.190669 -0.237277 -1.58903 188 179 133 1752393037
0.192079 -0.230495 -1.60077 188 179 133 1752393037
0.19351 -0.223611 -1.61269 188 179 133 1752393037
0.194962 -0.216624 -1.6248 188 179 133 1752393037
0.196436 -0.209532 -1.63708 188 179 133 1752393037
0.197932 -0.202331 -1.64955 188 179 133 1752393037
0.199452 -0.19502 -1.66222 188 179 133 1752393037
0.200995 -0.187595 -1.67508 188 179 133 1752393037
0.202562 -0.180055 -1.68814 188 179 133 1752393037
0.204154 -0.172396 -1.7014 188 179 133 1752393037
0.205771 -0.164616 -1.71488 188 179 133 1752393037
0.207413 -0.156712 -1.72857 188 179 133 1752393037
0.209082 -0.148681 -1.74248 188 179 133 1752393037
0.210779 -0.140519 -1.75662 188 179 133 1752393037
0.212503 -0.132224 -1.77098 188 179 133 1752393037
0.214255 -0.123792 -1.78559 188 179 133 1752393037
0.216037 -0.11522 -1.80043 188 179 133 1752393037
0.217848 -0.106504 -1.81553 188 179 133 1752393037
0.21969 -0.09764 -1.83088 188 179 133 1752393037
0.221564 -0.088626 -1.8465 188 179 133 1752393037
0.22347 -0.079456 -1.86238 188 179 133 1752393037
0.225408 -0.070127 -1.87854 188 179 133 1752393037
0.227381 -0.060635 -1.89498 188 179 133 1752393037
0.229389 -0.050975 -1.91171 188 179 133 1752393037
0.231432 -0.041143 -1.92874 188 179 133 1752393037
0.233512 -0.031135 -1.94607 188 179 133 1752393037
0.23563 -0.020945 -1.96372 188 179 133 1752393037
0.237787 -0.010568 -1.9817 188 179 133 1752393037
0.235554 0 -1.96309 102 91 80 1752393037
0.234856 0.010438 -1.95728 102 91 80 1752393037
0.234163 0.020815 -1.9515 102 91 80 1752393037
0.233474 0.03113 -1.94576 102 91 80 1752393037
0.232789 0.041385 -1.94005 102 91 80 1752393037
0.232108 0.05158 -1.93437 102 91 80 1752393037
0.231431 0.061715 -1.92873 102 91 80 1752393037
0.230758 0.071791 -1.92312 102 91 80 1752393037
0.230089 0.081809 -1.91755 102 91 80 1752393037
0.229424 0.091769 -1.912 102 91 80 1752393037
0.228762 0.101672 -1.90649 102 91 80 1752393037
0.228105 0.111518 -1.90101 102 91 80 1752393037
0.227451 0.121307 -1.89556 102 91 80 1752393037
0.2268 0.13104 -1.89014 102 91 80 1752393037
0.226154 0.140718 -1.88475 102 91 80 1752393037
0.225511 0.150341 -1.87939 102 91 80 1752393037
0.224872 0.159909 -1.87407 102 91 80 1752393037
0.224237 0.169423 -1.86877 102 91 80 1752393037
0.223605 0.178884 -1.86351 102 91 80 1752393037
0.222976 0.188291 -1.85827 102 91 80 1752393037
0.222351 0.197646 -1.85306 102 91 80 1752393037
0.22173 0.206948 -1.84788 102 91 80 1752393037
0.221112 0.216199 -1.84273 102 91 80 1752393037
0.220498 0.225398 -1.83761 102 91 80 1752393037
0.219887 0.234546 -1.83252 102 91 80 1752393037
0.219279 0.243643 -1.82746 102 91 80 1752393037
0.218675 0.252691 -1.82242 102 91 80 1752393037
0.218074 0.261688 -1.81741 102 91 80 1752393037
0.217476 0.270637 -1.81243 102 91 80 1752393037
0.216881 0.279536 -1.80747 102 91 80 1752393037
0.218556 0.291408 -1.82143 102 91 80 1752393037
0.221345 0.304964 -1.84467 102 91 80 1752393037
0.224247 0.31893 -1.86886 102 91 80 1752393037
0.227227 0.333266 -1.89369 102 91 80 1752393037
0.230287 0.347989 -1.9192 102 91 80 1752393037
0.23343 0.363114 -1.94539 102 91 80 1752393037
0.236661 0.378657 -1.97231 102 91 80 1752393037
0.239982 0.394637 -1.99999 102 91 80 1752393037
0.243397 0.411071 -2.02846 102 91 80 1752393037
0.246912 0.42798 -2.05774 102 91 80 1752393037
0.250529 0.445384 -2.08789 102 91 80 1752393037
0.254253 0.463306 -2.11893 102 91 80 1752393037
0.258091 0.481769 -2.15091 102 91 80 1752393037
0.262045 0.500798 -2.18387 102 91 80 1752393037
0.266123 0.520419 -2.21785 102 91 80 1752393037
0.270017 0.540034 -2.2503 102 91 80 1752393037
0.269312 0.550593 -2.24443 102 91 80 1752393037
0.26861 0.561097 -2.23858 102 91 80 1752393037
0.267912 0.571546 -2.23276 102 91 80 1752393037
0.267218 0.581941 -2.22697 102 91 80 1752393037
0.266527 0.592283 -2.22122 102 91 80 1752393037
0.26584 0.60257 -2.21549 102 91 80 1752393037
0.265156 0.612806 -2.20979 102 91 80 1752393037
0.264476 0.622988 -2.20412 102 91 80 1752393037
0.263799 0.633119 -2.19848 102 91 80 1752393037
0.263126 0.643197 -2.19287 102 91 80 1752393037
0.262456 0.653225 -2.18729 102 91 80 1752393037
0.26179 0.663201 -2.18174 102 91 80 1752393037
0.261127 0.673127 -2.17621 102 91 80 1752393037
0.260467 0.683003 -2.17072 102 91 80 1752393037
0.259811 0.692829 -2.16525 102 91 80 1752393037
0.259158 0.702606 -2.1598 102 91 80 1752393037
0.258508 0.712333 -2.15439 102 91 80 1752393037
0.257862 0.722012 -2.149 102 91 80 1752393037
0.257218 0.731643 -2.14364 102 91 80 1752393037
0.256578 0.741226 -2.1383 102 91 80 1752393037
0.255941 0.750761 -2.133 102 91 80 1752393037
0.255307 0.760249 -2.12771 102 91 80 1752393037
0.254778 0.769995 -2.1233 102 91 80 1752393037
0.254544 0.780602 -2.12135 102 91 80 1752393037
0.254311 0.791189 -2.11941 102 91 80 1752393037
0.254078 0.801756 -2.11747 102 91 80 1752393037
0.253845 0.812304 -2.11553 102 91 80 1752393037
0.253613 0.822833 -2.11359 102 91 80 1752393037
0.253381 0.833343 -2.11166 102 91 80 1752393037
0.146495 -0.472564 -1.18149 188 179 133 1752393037
0.147299 -0.468822 -1.18798 188 179 133 1752393037
0.148111 -0.465038 -1.19453 188 179 133 1752393037
0.148933 -0.461212 -1.20116 188 179 133 1752393037
0.149764 -0.457343 -1.20786 188 179 133 1752393037
0.150604 -0.453431 -1.21464 188 179 133 1752393037
0.151454 -0.449475 -1.22149 188 179 133 1752393037
0.152313 -0.445474 -1.22842 188 179 133 1752393037
0.153182 -0.441427 -1.23543 188 179 133 1752393037
0.154061 -0.437334 -1.24252 188 179 133 1752393037
0.15495 -0.433194 -1.24969 188 179 133 1752393037
0.15585 -0.429006 -1.25694 188 179 133 1752393037
0.15676 -0.424768 -1.26428 188 179 133 1752393037
0.15768 -0.420481 -1.27171 188 179 133 1752393037
0.158612 -0.416143 -1.27922 188 179 133 1752393037
0.159555 -0.411754 -1.28682 188 179 133 1752393037
0.160509 -0.407312 -1.29452 188 179 133 1752393037
0.161474 -0.402817 -1.3023 188 179 133 1752393037
0.162451 -0.398267 -1.31018 188 179 133 1752393037
0.16344 -0.393662 -1.31816 188 179 133 1752393037
0.164441 -0.389 -1.32623 188 179 133 1752393037
0.165455 -0.384282 -1.33441 188 179 133 1752393037
0.166481 -0.379504 -1.34268 188 179 133 1752393037
0.167519 -0.374667 -1.35106 188 179 133 1752393037
0.168571 -0.369769 -1.35954 188 179 133 1752393037
0.169636 -0.364809 -1.36813 188 179 133 1752393037
0.170715 -0.359787 -1.37683 188 179 133 1752393037
0.171808 -0.354699 -1.38564 188 179 133 1752393037
0.172914 -0.349547 -1.39457 188 179 133 1752393037
0.174035 -0.344327 -1.40361 188 179 133 1752393037
0.175171 -0.33904 -1.41277 188 179 133 1752393037
0.176321 -0.333683 -1.42205 188 179 133 1752393037
0.177487 -0.328255 -1.43145 188 179 133 1752393037
0.178668 -0.322755 -1.44097 188 179 133 1752393037
0.179865 -0.317181 -1.45063 188 179 133 1752393037
0.181078 -0.311532 -1.46041 188 179 133 1752393037
0.182308 -0.305807 -1.47033 188 179 133 1752393037
0.183554 -0.300003 -1.48038 188 179 133 1752393037
0.184818 -0.294119 -1.49057 188 179 133 1752393037
0.186099 -0.288153 -1.50091 188 179 133 1752393037
0.187398 -0.282105 -1.51138 188 179 133 1752393037
0.188715 -0.275971 -1.52201 188 179 133 1752393037
0.190051 -0.26975 -1.53278 188 179 133 1752393037
0.191406 -0.263441 -1.54371 188 179 133 1752393037
0.192781 -0.257041 -1.55479 188 179 133 1752393037
0.194175 -0.250548 -1.56604 188 179 133 1752393037
0.19559 -0.243961 -1.57745 188 179 133 1752393037
0.197025 -0.237277 -1.58903 188 179 133 1752393037
0.198482 -0.230495 -1.60077 188 179 133 1752393037
0.19996 -0.223611 -1.61269 188 179 133 1752393037
0.201461 -0.216624 -1.6248 188 179 133 1752393037
0.202984 -0.209532 -1.63708 188 179 133 1752393037
0.20453 -0.202331 -1.64955 188 179 133 1752393037
0.2061 -0.19502 -1.66222 188 179 133 1752393037
0.207695 -0.187595 -1.67508 188 179 133 1752393037
0.209314 -0.180055 -1.68814 188 179 133 1752393037
0.210959 -0.172396 -1.7014 188 179 133 1752393037
0.21263 -0.164616 -1.71488 188 179 133 1752393037
0.214327 -0.156712 -1.72857 188 179 133 1752393037
0.216052 -0.148681 -1.74248 188 179 133 1752393037
0.217805 -0.140519 -1.75662 188 179 133 1752393037
0.219586 -0.132224 -1.77098 188 179 133 1752393037
0.221397 -0.123792 -1.78559 188 179 133 1752393037
0.223238 -0.11522 -1.80043 188 179 133 1752393037
0.22511 -0.106504 -1.81553 188 179 133 1752393037
0.227013 -0.09764 -1.83088 188 179 133 1752393037
0.228949 -0.088626 -1.8465 188 179 133 1752393037
0.230919 -0.079456 -1.86238 188 179 133 1752393037
0.232922 -0.070127 -1.87854 188 179 133 1752393037
0.234961 -0.060635 -1.89498 188 179 133 1752393037
0.237035 -0.050975 -1.91171 188 179 133 1752393037
0.239147 -0.041143 -1.92874 188 179 133 1752393037
0.241296 -0.031135 -1.94607 188 179 133 1752393037
0.243484 -0.020945 -1.96372 188 179 133 1752393037
0.243838 -0.010488 -1.96658 102 91 80 1752393037
0.243115 0 -1.96075 102 91 80 1752393037
0.242397 0.010426 -1.95495 102 91 80 1752393037
0.241682 0.02079 -1.94919 102 91 80 1752393037
0.240972 0.031093 -1.94346 102 91 80 1752393037
0.240266 0.041336 -1.93776 102 91 80 1752393037
0.239564 0.051519 -1.9321 102 91 80 1752393037
0.238866 0.061643 -1.92647 102 91 80 1752393037
0.238172 0.071708 -1.92088 102 91 80 1752393037
0.237482 0.081714 -1.91531 102 91 80 1752393037
0.236796 0.091663 -1.90978 102 91 80 1752393037
0.236114 0.101554 -1.90428 102 91 80 1752393037
0.235436 0.111389 -1.89881 102 91 80 1752393037
0.234762 0.121167 -1.89338 102 91 80 1752393037
0.234091 0.13089 -1.88797 102 91 80 1752393037
0.233425 0.140557 -1.88259 102 91 80 1752393037
0.232762 0.150169 -1.87725 102 91 80 1752393037
0.232103 0.159727 -1.87194 102 91 80 1752393037
0.231448 0.169231 -1.86665 102 91 80 1752393037
0.230797 0.178681 -1.8614 102 91 80 1752393037
0.230149 0.188079 -1.85617 102 91 80 1752393037
0.229505 0.197423 -1.85098 102 91 80 1752393037
0.231253 0.208874 -1.86508 102 91 80 1752393037
0.229918 0.217557 -1.85431 102 91 80 1752393037
0.228598 0.22614 -1.84367 102 91 80 1752393037
0.227294 0.234626 -1.83315 102 91 80 1752393037
0.226336 0.243373 -1.82542 102 91 80 1752393037
0.225714 0.252411 -1.8204 102 91 80 1752393037
0.225094 0.2614 -1.81541 102 91 80 1752393037
0.224478 0.270339 -1.81043 102 91 80 1752393037
0.22548 0.281244 -1.81852 102 91 80 1752393037
0.226992 0.292893 -1.83071 102 91 80 1752393037
0.229027 0.305369 -1.84713 102 91 80 1752393037
0.231722 0.31893 -1.86886 102 91 80 1752393037
0.234801 0.333266 -1.89369 102 91 80 1752393037
0.237963 0.347989 -1.9192 102 91 80 1752393037
0.241211 0.363114 -1.94539 102 91 80 1752393037
0.244549 0.378657 -1.97231 102 91 80 1752393037
0.247981 0.394637 -1.99999 102 91 80 1752393037
0.251511 0.411071 -2.02846 102 91 80 1752393037
0.255142 0.42798 -2.05774 102 91 80 1752393037
0.25888 0.445384 -2.08789 102 91 80 1752393037
0.262729 0.463306 -2.11893 102 91 80 1752393037
0.266694 0.481769 -2.15091 102 91 80 1752393037
0.27078 0.500798 -2.18387 102 91 80 1752393037
0.274994 0.520419 -2.21785 102 91 80 1752393037
0.278724 0.539466 -2.24794 102 91 80 1752393037
0.277997 0.550016 -2.24207 102 91 80 1752393037
0.277274 0.56051 -2.23624 102 91 80 1752393037
0.276554 0.57095 -2.23043 102 91 80 1752393037
0.275838 0.581336 -2.22466 102 91 80 1752393037
0.275125 0.591668 -2.21891 102 91 80 1752393037
0.274417 0.601947 -2.2132 102 91 80 1752393037
0.273712 0.612173 -2.20751 102 91 80 1752393037
0.27301 0.622347 -2.20185 102 91 80 1752393037
0.272313 0.632468 -2.19623 102 91 80 1752393037
0.271618 0.642538 -2.19063 102 91 80 1752393037
0.270928 0.652557 -2.18506 102 91 80 1752393037
0.27024 0.662525 -2.17951 102 91 80 1752393037
0.269557 0.672443 -2.174 102 91 80 1752393037
0.268876 0.68231 -2.16851 102 91 80 1752393037
0.2682 0.692128 -2.16305 102 91 80 1752393037
0.267526 0.701897 -2.15762 102 91 80 1752393037
0.266856 0.711616 -2.15222 102 91 80 1752393037
0.266189 0.721287 -2.14684 102 91 80 1752393037
0.265526 0.73091 -2.14149 102 91 80 1752393037
0.264866 0.740485 -2.13617 102 91 80 1752393037
0.264209 0.750013 -2.13087 102 91 80 1752393037
0.263555 0.759493 -2.1256 102 91 80 1752393037
0.263024 0.769275 -2.12131 102 91 80 1752393037
0.262783 0.779872 -2.11937 102 91 80 1752393037
0.262542 0.79045 -2.11743 102 91 80 1752393037
0.262302 0.801008 -2.11549 102 91 80 1752393037
0.262062 0.811547 -2.11355 102 91 80 1752393037
0.261823 0.822067 -2.11162 102 91 80 1752393037
0.261584 0.832568 -2.1097 102 91 80 1752393037
0.151221 -0.472564 -1.18149 188 179 133 1752393037
0.15205 -0.468822 -1.18798 188 179 133 1752393037
0.152889 -0.465038 -1.19453 188 179 133 1752393037
0.153737 -0.461212 -1.20116 188 179 133 1752393037
0.154595 -0.457343 -1.20786 188 179 133 1752393037
0.155462 -0.453431 -1.21464 188 179 133 1752393037
0.156339 -0.449475 -1.22149 188 179 133 1752393037
0.157226 -0.445474 -1.22842 188 179 133 1752393037
0.158123 -0.441427 -1.23543 188 179 133 1752393037
0.159031 -0.437334 -1.24252 188 179 133 1752393037
0.159949 -0.433194 -1.24969 188 179 133 1752393037
0.160877 -0.429006 -1.25694 188 179 133 1752393037
0.161816 -0.424768 -1.26428 188 179 133 1752393037
0.162767 -0.420481 -1.27171 188 179 133 1752393037
0.163728 -0.416143 -1.27922 188 179 133 1752393037
0.164702 -0.411754 -1.28682 188 179 133 1752393037
0.165686 -0.407312 -1.29452 188 179 133 1752393037
0.166683 -0.402817 -1.3023 188 179 133 1752393037
0.167691 -0.398267 -1.31018 188 179 133 1752393037
0.168712 -0.393662 -1.31816 188 179 133 1752393037
0.169746 -0.389 -1.32623 188 179 133 1752393037
0.170792 -0.384281 -1.33441 188 179 133 1752393037
0.171851 -0.379504 -1.34268 188 179 133 1752393037
0.172923 -0.374667 -1.35106 188 179 133 1752393037
0.174009 -0.369769 -1.35954 188 179 133 1752393037
0.175108 -0.364809 -1.36813 188 179 133 1752393037
0.176222 -0.359787 -1.37683 188 179 133 1752393037
0.17735 -0.354699 -1.38564 188 179 133 1752393037
0.178492 -0.349547 -1.39457 188 179 133 1752393037
0.179649 -0.344327 -1.40361 188 179 133 1752393037
0.180821 -0.33904 -1.41277 188 179 133 1752393037
0.182009 -0.333683 -1.42204 188 179 133 1752393037
0.183212 -0.328255 -1.43145 188 179 133 1752393037
0.184431 -0.322755 -1.44097 188 179 133 1752393037
0.185667 -0.317181 -1.45063 188 179 133 1752393037
0.186919 -0.311532 -1.46041 188 179 133 1752393037
0.188189 -0.305807 -1.47033 188 179 133 1752393037
0.189475 -0.300003 -1.48038 188 179 133 1752393037
0.19078 -0.294119 -1.49057 188 179 133 1752393037
0.192102 -0.288153 -1.50091 188 179 133 1752393037
0.193443 -0.282104 -1.51138 188 179 133 1752393037
0.194803 -0.275971 -1.52201 188 179 133 1752393037
0.196182 -0.26975 -1.53278 188 179 133 1752393037
0.197581 -0.263441 -1.54371 188 179 133 1752393037
0.198999 -0.257041 -1.55479 188 179 133 1752393037
0.200439 -0.250548 -1.56604 188 179 133 1752393037
0.201899 -0.243961 -1.57745 188 179 133 1752393037
0.203381 -0.237277 -1.58903 188 179 133 1752393037
0.204884 -0.230495 -1.60077 188 179 133 1752393037
0.20641 -0.223611 -1.61269 188 179 133 1752393037
0.207959 -0.216624 -1.6248 188 179 133 1752393037
0.209532 -0.209532 -1.63708 188 179 133 1752393037
0.211128 -0.202331 -1.64955 188 179 133 1752393037
0.212749 -0.19502 -1.66222 188 179 133 1752393037
0.214395 -0.187595 -1.67508 188 179 133 1752393037
0.216066 -0.180055 -1.68814 188 179 133 1752393037
0.217764 -0.172396 -1.7014 188 179 133 1752393037
0.219489 -0.164616 -1.71488 188 179 133 1752393037
0.221241 -0.156712 -1.72857 188 179 133 1752393037
0.223021 -0.148681 -1.74248 188 179 133 1752393037
0.224831 -0.140519 -1.75662 188 179 133 1752393037
0.22667 -0.132224 -1.77098 188 179 133 1752393037
0.228539 -0.123792 -1.78559 188 179 133 1752393037
0.230439 -0.11522 -1.80043 188 179 133 1752393037
0.232371 -0.106504 -1.81553 188 179 133 1752393037
0.234336 -0.09764 -1.83088 188 179 133 1752393037
0.236335 -0.088626 -1.8465 188 179 133 1752393037
0.238368 -0.079456 -1.86238 188 179 133 1752393037
0.240436 -0.070127 -1.87854 188 179 133 1752393037
0.24254 -0.060635 -1.89498 188 179 133 1752393037
0.244681 -0.050975 -1.91171 188 179 133 1752393037
0.246861 -0.041143 -1.92874 188 179 133 1752393037
0.24908 -0.031135 -1.94607 188 179 133 1752393037
0.251339 -0.020945 -1.96372 188 179 133 1752393037
0.251404 -0.010475 -1.96423 102 91 80 1752393037
0.250659 0 -1.95841 102 91 80 1752393037
0.249919 0.010413 -1.95263 102 91 80 1752393037
0.249183 0.020765 -1.94688 102 91 80 1752393037
0.248452 0.031056 -1.94117 102 91 80 1752393037
0.247724 0.041287 -1.93549 102 91 80 1752393037
0.247001 0.051459 -1.92984 102 91 80 1752393037
0.246283 0.061571 -1.92422 102 91 80 1752393037
0.245568 0.071624 -1.91864 102 91 80 1752393037
0.244858 0.081619 -1.91309 102 91 80 1752393037
0.244151 0.091557 -1.90757 102 91 80 1752393037
0.243449 0.101437 -1.90208 102 91 80 1752393037
0.242751 0.111261 -1.89662 102 91 80 1752393037
0.242056 0.121028 -1.8912 102 91 80 1752393037
0.241366 0.13074 -1.88581 102 91 80 1752393037
0.240679 0.140396 -1.88044 102 91 80 1752393037
0.239997 0.149998 -1.87511 102 91 80 1752393037
0.239318 0.159546 -1.86981 102 91 80 1752393037
0.238644 0.169039 -1.86454 102 91 80 1752393037
0.237973 0.178479 -1.85929 102 91 80 1752393037
0.237305 0.187867 -1.85408 102 91 80 1752393037
0.236642 0.197202 -1.8489 102 91 80 1752393037
0.235982 0.206484 -1.84374 102 91 80 1752393037
0.235326 0.215715 -1.83861 102 91 80 1752393037
0.234673 0.224895 -1.83352 102 91 80 1752393037
0.234024 0.234024 -1.82845 102 91 80 1752393037
0.233379 0.243103 -1.82341 102 91 80 1752393037
0.232737 0.252132 -1.81839 102 91 80 1752393037
0.232098 0.261111 -1.8134 102 91 80 1752393037
0.236791 0.276256 -1.85006 102 91 80 1752393037
0.236419 0.285673 -1.84715 102 91 80 1752393037
0.237042 0.296303 -1.85202 102 91 80 1752393037
0.2383 0.307805 -1.86186 102 91 80 1752393037
0.240108 0.320143 -1.87597 102 91 80 1752393037
0.242513 0.333455 -1.89477 102 91 80 1752393037
0.245639 0.347989 -1.9192 102 91 80 1752393037
0.248992 0.363114 -1.94539 102 91 80 1752393037
0.252438 0.378657 -1.97231 102 91 80 1752393037
0.255981 0.394637 -1.99999 102 91 80 1752393037
0.259624 0.411071 -2.02846 102 91 80 1752393037
0.263372 0.42798 -2.05774 102 91 80 1752393037
0.267231 0.445384 -2.08789 102 91 80 1752393037
0.271204 0.463306 -2.11893 102 91 80 1752393037
0.275297 0.481769 -2.15091 102 91 80 1752393037
0.279515 0.500798 -2.18387 102 91 80 1752393037
0.283865 0.520419 -2.21785 102 91 80 1752393037
0.287413 0.5389 -2.24558 102 91 80 1752393037
0.286664 0.549439 -2.23972 102 91 80 1752393037
0.285919 0.559924 -2.2339 102 91 80 1752393037
0.285177 0.570355 -2.22811 102 91 80 1752393037
0.28444 0.580731 -2.22234 102 91 80 1752393037
0.283706 0.591054 -2.21661 102 91 80 1752393037
0.282976 0.601324 -2.21091 102 91 80 1752393037
0.28225 0.611541 -2.20523 102 91 80 1752393037
0.281527 0.621706 -2.19959 102 91 80 1752393037
0.280808 0.631819 -2.19397 102 91 80 1752393037
0.280093 0.64188 -2.18839 102 91 80 1752393037
0.279382 0.651891 -2.18283 102 91 80 1752393037
0.278674 0.66185 -2.17729 102 91 80 1752393037
0.277969 0.67176 -2.17179 102 91 80 1752393037
0.277269 0.681619 -2.16632 102 91 80 1752393037
0.276571 0.691428 -2.16087 102 91 80 1752393037
0.275878 0.701189 -2.15545 102 91 80 1752393037
0.275187 0.710901 -2.15005 102 91 80 1752393037
0.2745 0.720564 -2.14469 102 91 80 1752393037
0.273817 0.730179 -2.13935 102 91 80 1752393037
0.273137 0.739746 -2.13404 102 91 80 1752393037
0.27246 0.749266 -2.12875 102 91 80 1752393037
0.271787 0.758739 -2.12349 102 91 80 1752393037
0.271255 0.768556 -2.11933 102 91 80 1752393037
0.271007 0.779144 -2.11739 102 91 80 1752393037
0.270759 0.789712 -2.11545 102 91 80 1752393037
0.270511 0.800262 -2.11352 102 91 80 1752393037
0.270264 0.810791 -2.11159 102 91 80 1752393037
0.270017 0.821302 -2.10966 102 91 80 1752393037
0.269771 0.831794 -2.10774 102 91 80 1752393037
0.155946 -0.472564 -1.18149 188 179 133 1752393037
0.156802 -0.468822 -1.18798 188 179 133 1752393037
0.157667 -0.465038 -1.19453 188 179 133 1752393037
0.158542 -0.461212 -1.20116 188 179 133 1752393037
0.159426 -0.457343 -1.20786 188 179 133 1752393037
0.16032 -0.453431 -1.21464 188 179 133 1752393037
0.161225 -0.449475 -1.22149 188 179 133 1752393037
0.16214 -0.445474 -1.22842 188 179 133 1752393037
0.163065 -0.441427 -1.23543 188 179 133 1752393037
0.164 -0.437334 -1.24252 188 179 133 1752393037
0.164947 -0.433194 -1.24969 188 179 133 1752393037
0.165904 -0.429006 -1.25694 188 179 133 1752393037
0.166873 -0.424768 -1.26428 188 179 133 1752393037
0.167853 -0.420481 -1.27171 188 179 133 1752393037
0.168845 -0.416143 -1.27922 188 179 133 1752393037
0.169848 -0.411754 -1.28682 188 179 133 1752393037
0.170864 -0.407312 -1.29452 188 179 133 1752393037
0.171892 -0.402817 -1.3023 188 179 133 1752393037
0.172932 -0.398267 -1.31018 188 179 133 1752393037
0.173985 -0.393662 -1.31816 188 179 133 1752393037
0.17505 -0.389 -1.32623 188 179 133 1752393037
0.176129 -0.384282 -1.33441 188 179 133 1752393037
0.177221 -0.379504 -1.34268 188 179 133 1752393037
0.178327 -0.374667 -1.35106 188 179 133 1752393037
0.179447 -0.369769 -1.35954 188 179 133 1752393037
0.180581 -0.364809 -1.36813 188 179 133 1752393037
0.181729 -0.359787 -1.37683 188 179 133 1752393037
0.182892 -0.354699 -1.38564 188 179 133 1752393037
0.18407 -0.349547 -1.39457 188 179 133 1752393037
0.185263 -0.344327 -1.40361 188 179 133 1752393037
0.186472 -0.33904 -1.41277 188 179 133 1752393037
0.187697 -0.333683 -1.42204 188 179 133 1752393037
0.188938 -0.328255 -1.43145 188 179 133 1752393037
0.190195 -0.322755 -1.44097 188 179 133 1752393037
0.191469 -0.317181 -1.45063 188 179 133 1752393037
0.192761 -0.311532 -1.46041 188 179 133 1752393037
0.19407 -0.305807 -1.47033 188 179 133 1752393037
0.195396 -0.300003 -1.48038 188 179 133 1752393037
0.196742 -0.294119 -1.49057 188 179 133 1752393037
0.198105 -0.288153 -1.50091 188 179 133 1752393037
0.199488 -0.282104 -1.51138 188 179 133 1752393037
0.20089 -0.275971 -1.52201 188 179 133 1752393037
0.202313 -0.26975 -1.53278 188 179 133 1752393037
0.203755 -0.263441 -1.54371 188 179 133 1752393037
0.205218 -0.257041 -1.55479 188 179 133 1752393037
0.206702 -0.250548 -1.56604 188 179 133 1752393037
0.208208 -0.243961 -1.57745 188 179 133 1752393037
0.209736 -0.237277 -1.58903 188 179 133 1752393037
0.211287 -0.230495 -1.60077 188 179 133 1752393037
0.212861 -0.223611 -1.61269 188 179 133 1752393037
0.214458 -0.216624 -1.6248 188 179 133 1752393037
0.216079 -0.209532 -1.63708 188 179 133 1752393037
0.217726 -0.202331 -1.64955 188 179 133 1752393037
0.219397 -0.19502 -1.66222 188 179 133 1752393037
0.221094 -0.187595 -1.67508 188 179 133 1752393037
0.222818 -0.180055 -1.68814 188 179 133 1752393037
0.224569 -0.172396 -1.7014 188 179 133 1752393037
0.226348 -0.164616 -1.71488 188 179 133 1752393037
0.228155 -0.156712 -1.72857 188 179 133 1752393037
0.229991 -0.148681 -1.74248 188 179 133 1752393037
0.231857 -0.140519 -1.75662 188 179 133 1752393037
0.233753 -0.132224 -1.77098 188 179 133 1752393037
0.235681 -0.123792 -1.78559 188 179 133 1752393037
0.237641 -0.11522 -1.80043 188 179 133 1752393037
0.239633 -0.106504 -1.81553 188 179 133 1752393037
0.241659 -0.09764 -1.83088 188 179 133 1752393037
0.24372 -0.088626 -1.8465 188 179 133 1752393037
0.245817 -0.079456 -1.86238 188 179 133 1752393037
0.247949 -0.070127 -1.87854 188 179 133 1752393037
0.250119 -0.060635 -1.89498 188 179 133 1752393037
0.252328 -0.050975 -1.91171 188 179 133 1752393037
0.254575 -0.041143 -1.92874 188 179 133 1752393037
0.256864 -0.031135 -1.94607 188 179 133 1752393037
0.259193 -0.020945 -1.96372 188 179 133 1752393037
0.258951 -0.010463 -1.96189 102 91 80 1752393037
0.258185 0 -1.95609 102 91 80 1752393037
0.257423 0.010401 -1.95032 102 91 80 1752393037
0.256666 0.020741 -1.94458 102 91 80 1752393037
0.255914 0.03102 -1.93888 102 91 80 1752393037
0.255166 0.041239 -1.93321 102 91 80 1752393037
0.254422 0.051398 -1.92757 102 91 80 1752393037
0.253682 0.061499 -1.92197 102 91 80 1752393037
0.252947 0.071541 -1.9164 102 91 80 1752393037
0.252216 0.081524 -1.91086 102 91 80 1752393037
0.251489 0.091451 -1.90536 102 91 80 1752393037
0.250767 0.10132 -1.89988 102 91 80 1752393037
0.250048 0.111133 -1.89444 102 91 80 1752393037
0.249334 0.120889 -1.88903 102 91 80 1752393037
0.248623 0.13059 -1.88365 102 91 80 1752393037
0.247917 0.140236 -1.87829 102 91 80 1752393037
0.247215 0.149827 -1.87297 102 91 80 1752393037
0.246517 0.159364 -1.86769 102 91 80 1752393037
0.245823 0.168848 -1.86243 102 91 80 1752393037
0.245132 0.178278 -1.8572 102 91 80 1752393037
0.244446 0.187655 -1.85199 102 91 80 1752393037
0.243763 0.19698 -1.84682 102 91 80 1752393037
0.243084 0.206253 -1.84168 102 91 80 1752393037
0.242409 0.215475 -1.83656 102 91 80 1752393037
0.241738 0.224645 -1.83148 102 91 80 1752393037
0.24107 0.233765 -1.82642 102 91 80 1752393037
0.240406 0.242834 -1.82139 102 91 80 1752393037
0.239745 0.251853 -1.81638 102 91 80 1752393037
0.239088 0.260824 -1.8114 102 91 80 1752393037
0.238435 0.269745 -1.80645 102 91 80 1752393037
0.238249 0.27916 -1.80504 102 91 80 1752393037
0.249459 0.302375 -1.88998 102 91 80 1752393037
0.249404 0.312385 -1.88956 102 91 80 1752393037
0.250285 0.3236 -1.89623 102 91 80 1752393037
0.251811 0.335748 -1.9078 102 91 80 1752393037
0.253947 0.348856 -1.92398 102 91 80 1752393037
0.25681 0.363166 -1.94567 102 91 80 1752393037
0.260327 0.378657 -1.97231 102 91 80 1752393037
0.26398 0.394637 -1.99999 102 91 80 1752393037
0.267737 0.411071 -2.02846 102 91 80 1752393037
0.271603 0.42798 -2.05774 102 91 80 1752393037
0.275582 0.445384 -2.08789 102 91 80 1752393037
0.279679 0.463306 -2.11893 102 91 80 1752393037
0.2839 0.481769 -2.15091 102 91 80 1752393037
0.28825 0.500798 -2.18387 102 91 80 1752393037
0.292736 0.520419 -2.21785 102 91 80 1752393037
0.296084 0.538334 -2.24322 102 91 80 1752393037
0.295313 0.548864 -2.23738 102 91 80 1752393037
0.294546 0.55934 -2.23157 102 91 80 1752393037
0.293783 0.569761 -2.22579 102 91 80 1752393037
0.293024 0.580128 -2.22004 102 91 80 1752393037
0.292269 0.590442 -2.21431 102 91 80 1752393037
0.291518 0.600703 -2.20862 102 91 80 1752393037
0.29077 0.610911 -2.20296 102 91 80 1752393037
0.290027 0.621067 -2.19733 102 91 80 1752393037
0.289287 0.631171 -2.19172 102 91 80 1752393037
0.288551 0.641224 -2.18615 102 91 80 1752393037
0.287819 0.651226 -2.1806 102 91 80 1752393037
0.28709 0.661177 -2.17508 102 91 80 1752393037
0.286365 0.671078 -2.16959 102 91 80 1752393037
0.285644 0.680929 -2.16412 102 91 80 1752393037
0.284926 0.69073 -2.15869 102 91 80 1752393037
0.284212 0.700483 -2.15328 102 91 80 1752393037
0.283502 0.710186 -2.14789 102 91 80 1752393037
0.282795 0.719842 -2.14254 102 91 80 1752393037
0.282091 0.729449 -2.13721 102 91 80 1752393037
0.281392 0.739008 -2.13191 102 91 80 1752393037
0.280695 0.74852 -2.12663 102 91 80 1752393037
0.280002 0.757986 -2.12138 102 91 80 1752393037
0.279471 0.767838 -2.11735 102 91 80 1752393037
0.279215 0.778417 -2.11541 102 91 80 1752393037
0.278959 0.788976 -2.11348 102 91 80 1752393037
0.278705 0.799516 -2.11155 102 91 80 1752393037
0.27845 0.810037 -2.10962 102 91 80 1752393037
0.278196 0.820539 -2.1077 102 91 80 1752393037
0.277943 0.831021 -2.10578 102 91 80 1752393037
0.160672 -0.472564 -1.18149 188 179 133 1752393037
0.161553 -0.468822 -1.18798 188 179 133 1752393037
0.162445 -0.465038 -1.19453 188 179 133 1752393037
0.163346 -0.461212 -1.20116 188 179 133 1752393037
0.164257 -0.457343 -1.20786 188 179 133 1752393037
0.165179 -0.453431 -1.21464 188 179 133 1752393037
0.16611 -0.449475 -1.22149 188 179 133 1752393037
0.167053 -0.445474 -1.22842 188 179 133 1752393037
0.168006 -0.441427 -1.23543 188 179 133 1752393037
0.16897 -0.437334 -1.24252 188 179 133 1752393037
0.169945 -0.433194 -1.24969 188 179 133 1752393037
0.170932 -0.429006 -1.25694 188 179 133 1752393037
0.17193 -0.424768 -1.26428 188 179 133 1752393037
0.17294 -0.420481 -1.27171 188 179 133 1752393037
0.173962 -0.416143 -1.27922 188 179 133 1752393037
0.174995 -0.411754 -1.28682 188 179 133 1752393037
0.176042 -0.407312 -1.29452 188 179 133 1752393037
0.1771 -0.402817 -1.3023 188 179 133 1752393037
0.178172 -0.398267 -1.31018 188 179 133 1752393037
0.179257 -0.393662 -1.31816 188 179 133 1752393037
0.180355 -0.389 -1.32623 188 179 133 1752393037
0.181466 -0.384281 -1.33441 188 179 133 1752393037
0.182592 -0.379504 -1.34268 188 179 133 1752393037
0.183731 -0.374667 -1.35106 188 179 133 1752393037
0.184885 -0.369769 -1.35954 188 179 133 1752393037
0.186053 -0.364809 -1.36813 188 179 133 1752393037
0.187236 -0.359787 -1.37683 188 179 133 1752393037
0.188434 -0.354699 -1.38564 188 179 133 1752393037
0.189648 -0.349547 -1.39457 188 179 133 1752393037
