ply
format ascii 1.0
comment PCL generated
obj_info is_cyberware_data 0
obj_info is_mesh 0
obj_info is_warped 0
obj_info is_interlaced 0
obj_info num_cols 30000
obj_info num_rows 1
obj_info echo_rgb_offset_x 0
obj_info echo_rgb_offset_y 0
obj_info echo_rgb_offset_z 0
obj_info echo_rgb_frontfocus 0.0
obj_info echo_rgb_backfocus 0.0
obj_info echo_rgb_pixelsize 0.0
obj_info echo_rgb_centerpixel 0
obj_info echo_frames 1
obj_info echo_lgincr 0.0
element vertex 958
property float x
property float y
property float z
property uchar red
property uchar green
property uchar blue
property uint label
end_header
0.388656 -0.453432 -1.21464 188 179 133 1752393037
0.390848 -0.449475 -1.22149 188 179 133 1752393037
0.393066 -0.445474 -1.22842 188 179 133 1752393037
0.395308 -0.441428 -1.23543 188 179 133 1752393037
0.397577 -0.437335 -1.24252 188 179 133 1752393037
0.399871 -0.433194 -1.24969 188 179 133 1752393037
0.402193 -0.429006 -1.25694 188 179 133 1752393037
0.404541 -0.424768 -1.26428 188 179 133 1752393037
0.406917 -0.420481 -1.27171 188 179 133 1752393037
0.409321 -0.416143 -1.27922 188 179 133 1752393037
0.411754 -0.411754 -1.28682 188 179 133 1752393037
0.414216 -0.407312 -1.29452 188 179 133 1752393037
0.416707 -0.402817 -1.3023 188 179 133 1752393037
0.419229 -0.398267 -1.31018 188 179 133 1752393037
0.421781 -0.393662 -1.31816 188 179 133 1752393037
0.424364 -0.389001 -1.32623 188 179 133 1752393037
0.42698 -0.384282 -1.33441 188 179 133 1752393037
0.429627 -0.379504 -1.34268 188 179 133 1752393037
0.432308 -0.374667 -1.35106 188 179 133 1752393037
0.435023 -0.369769 -1.35954 188 179 133 1752393037
0.437771 -0.36481 -1.36813 188 179 133 1752393037
0.440555 -0.359787 -1.37683 188 179 133 1752393037
0.443375 -0.3547 -1.38564 188 179 133 1752393037
0.44623 -0.349547 -1.39457 188 179 133 1752393037
0.449123 -0.344328 -1.40361 188 179 133 1752393037
0.452053 -0.33904 -1.41277 188 179 133 1752393037
0.455022 -0.333683 -1.42205 188 179 133 1752393037
0.45803 -0.328255 -1.43145 188 179 133 1752393037
0.461079 -0.322755 -1.44097 188 179 133 1752393037
0.464168 -0.317181 -1.45063 188 179 133 1752393037
0.467299 -0.311532 -1.46041 188 179 133 1752393037
0.470472 -0.305807 -1.47033 188 179 133 1752393037
0.473689 -0.300003 -1.48038 188 179 133 1752393037
0.476949 -0.294119 -1.49057 188 179 133 1752393037
0.480256 -0.288153 -1.50091 188 179 133 1752393037
0.483608 -0.282105 -1.51138 188 179 133 1752393037
0.487007 -0.275971 -1.52201 188 179 133 1752393037
0.490455 -0.26975 -1.53278 188 179 133 1752393037
0.493952 -0.263441 -1.54371 188 179 133 1752393037
0.497499 -0.257041 -1.55479 188 179 133 1752393037
0.501097 -0.250548 -1.56604 188 179 133 1752393037
0.504748 -0.243961 -1.57745 188 179 133 1752393037
0.508452 -0.237278 -1.58903 188 179 133 1752393037
0.512211 -0.230495 -1.60077 188 179 133 1752393037
0.516026 -0.223611 -1.6127 188 179 133 1752393037
0.519898 -0.216624 -1.6248 188 179 133 1752393037
0.416447 -0.166579 -1.30149 149 73 28 1752393037
0.415325 -0.159208 -1.29798 149 73 28 1752393037
0.414208 -0.151876 -1.29449 149 73 28 1752393037
0.413098 -0.144584 -1.29102 149 73 28 1752393037
0.411994 -0.137331 -1.28757 149 73 28 1752393037
0.410895 -0.130117 -1.28414 149 73 28 1752393037
0.409803 -0.122941 -1.28073 149 73 28 1752393037
0.408716 -0.115803 -1.27733 149 73 28 1752393037
0.407635 -0.108703 -1.27395 149 73 28 1752393037
0.406559 -0.10164 -1.27059 149 73 28 1752393037
0.40549 -0.094614 -1.26725 149 73 28 1752393037
0.404426 -0.087626 -1.26392 149 73 28 1752393037
0.403367 -0.080673 -1.26061 149 73 28 1752393037
0.580929 -0.106504 -1.81553 188 179 133 1752393037
0.585841 -0.09764 -1.83089 188 179 133 1752393037
0.590837 -0.088626 -1.8465 188 179 133 1752393037
0.59592 -0.079456 -1.86238 188 179 133 1752393037
0.60109 -0.070127 -1.87854 188 179 133 1752393037
0.60635 -0.060635 -1.89498 188 179 133 1752393037
0.611704 -0.050975 -1.91171 188 179 133 1752393037
0.617153 -0.041144 -1.92874 188 179 133 1752393037
0.6227 -0.031135 -1.94607 188 179 133 1752393037
0.628347 -0.020945 -1.96372 188 179 133 1752393037
0.634098 -0.010568 -1.9817 188 179 133 1752393037
0.639955 0 -2 188 179 133 1752393037
0.645922 0.010765 -2.01865 188 179 133 1752393037
0.652 0.021733 -2.03765 188 179 133 1752393037
0.658194 0.03291 -2.057 188 179 133 1752393037
0.664507 0.0443 -2.07673 188 179 133 1752393037
0.670943 0.055912 -2.09684 188 179 133 1752393037
0.677504 0.06775 -2.11735 188 179 133 1752393037
0.684194 0.079823 -2.13826 188 179 133 1752393037
0.691019 0.092136 -2.15959 188 179 133 1752393037
0.69798 0.104697 -2.18134 188 179 133 1752393037
0.705084 0.117514 -2.20354 188 179 133 1752393037
0.712333 0.130594 -2.2262 188 179 133 1752393037
0.719733 0.143947 -2.24933 188 179 133 1752393037
0.727288 0.157579 -2.27294 188 179 133 1752393037
0.735004 0.171501 -2.29705 188 179 133 1752393037
0.742885 0.185721 -2.32168 188 179 133 1752393037
0.227195 0.060585 -0.710036 149 73 28 1752393037
0.226672 0.064224 -0.708399 149 73 28 1752393037
0.22615 0.067845 -0.70677 149 73 28 1752393037
0.225631 0.07145 -0.705149 149 73 28 1752393037
0.225115 0.075038 -0.703534 149 73 28 1752393037
0.224601 0.07861 -0.701928 149 73 28 1752393037
0.224089 0.082166 -0.700328 149 73 28 1752393037
0.22358 0.085706 -0.698736 149 73 28 1752393037
0.223072 0.089229 -0.697151 149 73 28 1752393037
0.222568 0.092737 -0.695574 149 73 28 1752393037
0.222065 0.096228 -0.694003 149 73 28 1752393037
0.217612 0.097925 -0.680086 149 73 28 1752393037
0.217123 0.101324 -0.678558 149 73 28 1752393037
0.216636 0.104707 -0.677036 149 73 28 1752393037
0.217777 0.108889 -0.680602 149 73 28 1752393037
0.220596 0.113975 -0.689411 149 73 28 1752393037
0.223488 0.119194 -0.698451 149 73 28 1752393037
0.226458 0.124552 -0.707732 149 73 28 1752393037
0.229508 0.130054 -0.717262 149 73 28 1752393037
0.23264 0.135707 -0.727053 149 73 28 1752393037
0.23586 0.141516 -0.737114 149 73 28 1752393037
0.23917 0.147488 -0.747458 149 73 28 1752393037
0.242574 0.15363 -0.758097 149 73 28 1752393037
0.246076 0.159949 -0.769042 149 73 28 1752393037
0.249681 0.166454 -0.780309 149 73 28 1752393037
0.253393 0.173152 -0.79191 149 73 28 1752393037
0.257217 0.180052 -0.803861 149 73 28 1752393037
0.261159 0.187164 -0.816179 149 73 28 1752393037
0.265223 0.194497 -0.82888 149 73 28 1752393037
0.269415 0.202061 -0.841982 149 73 28 1752393037
0.273742 0.209869 -0.855506 149 73 28 1752393037
0.278211 0.217932 -0.869471 149 73 28 1752393037
0.282828 0.226262 -0.883899 149 73 28 1752393037
0.2876 0.234874 -0.898815 149 73 28 1752393037
0.292537 0.243781 -0.914242 149 73 28 1752393037
0.297646 0.252999 -0.930209 149 73 28 1752393037
0.302936 0.262545 -0.946742 149 73 28 1752393037
0.308418 0.272436 -0.963875 149 73 28 1752393037
0.314102 0.282692 -0.981638 149 73 28 1752393037
0.319999 0.293333 -1.00007 149 73 28 1752393037
0.326122 0.304381 -1.0192 149 73 28 1752393037
0.332484 0.31586 -1.03909 149 73 28 1752393037
0.3391 0.327796 -1.05976 149 73 28 1752393037
0.345983 0.340217 -1.08127 149 73 28 1752393037
0.353153 0.353153 -1.10368 149 73 28 1752393037
0.360625 0.366635 -1.12703 149 73 28 1752393037
0.36842 0.380701 -1.1514 149 73 28 1752393037
0.37656 0.395388 -1.17683 149 73 28 1752393037
0.385068 0.410739 -1.20342 149 73 28 1752393037
0.393969 0.4268 -1.23124 149 73 28 1752393037
0.403292 0.443621 -1.26038 149 73 28 1752393037
0.413066 0.461257 -1.29092 149 73 28 1752393037
0.423326 0.479769 -1.32299 149 73 28 1752393037
0.434108 0.499224 -1.35668 149 73 28 1752393037
0.723066 0.843577 -2.25974 177 105 42 1752393037
0.721512 0.853789 -2.25488 177 105 42 1752393037
0.719963 0.863956 -2.25005 177 105 42 1752393037
0.718422 0.87408 -2.24523 177 105 42 1752393037
0.716887 0.884161 -2.24043 177 105 42 1752393037
0.382777 -0.472565 -1.1815 188 179 133 1752393037
0.384878 -0.468822 -1.18798 188 179 133 1752393037
0.387001 -0.465038 -1.19453 188 179 133 1752393037
0.389148 -0.461212 -1.20116 188 179 133 1752393037
0.391319 -0.457344 -1.20786 188 179 133 1752393037
0.393514 -0.453432 -1.21464 188 179 133 1752393037
0.395734 -0.449475 -1.22149 188 179 133 1752393037
0.397979 -0.445474 -1.22842 188 179 133 1752393037
0.40025 -0.441428 -1.23543 188 179 133 1752393037
0.402546 -0.437335 -1.24252 188 179 133 1752393037
0.40487 -0.433194 -1.24969 188 179 133 1752393037
0.40722 -0.429006 -1.25694 188 179 133 1752393037
0.409598 -0.424768 -1.26428 188 179 133 1752393037
0.412004 -0.420481 -1.27171 188 179 133 1752393037
0.414438 -0.416143 -1.27922 188 179 133 1752393037
0.416901 -0.411754 -1.28682 188 179 133 1752393037
0.419393 -0.407312 -1.29452 188 179 133 1752393037
0.421916 -0.402817 -1.3023 188 179 133 1752393037
0.424469 -0.398267 -1.31018 188 179 133 1752393037
0.427053 -0.393662 -1.31816 188 179 133 1752393037
0.429669 -0.389001 -1.32623 188 179 133 1752393037
0.432317 -0.384282 -1.33441 188 179 133 1752393037
0.434998 -0.379504 -1.34268 188 179 133 1752393037
0.437712 -0.374667 -1.35106 188 179 133 1752393037
0.44046 -0.369769 -1.35954 188 179 133 1752393037
0.443244 -0.36481 -1.36813 188 179 133 1752393037
0.446062 -0.359787 -1.37683 188 179 133 1752393037
0.448917 -0.3547 -1.38564 188 179 133 1752393037
0.451808 -0.349547 -1.39457 188 179 133 1752393037
0.454737 -0.344328 -1.40361 188 179 133 1752393037
0.457704 -0.33904 -1.41277 188 179 133 1752393037
0.46071 -0.333683 -1.42205 188 179 133 1752393037
0.463756 -0.328255 -1.43145 188 179 133 1752393037
0.466842 -0.322755 -1.44097 188 179 133 1752393037
0.46997 -0.317181 -1.45063 188 179 133 1752393037
0.47314 -0.311532 -1.46041 188 179 133 1752393037
0.476353 -0.305807 -1.47033 188 179 133 1752393037
0.47961 -0.300003 -1.48038 188 179 133 1752393037
0.482911 -0.294119 -1.49057 188 179 133 1752393037
0.486259 -0.288153 -1.50091 188 179 133 1752393037
0.489653 -0.282105 -1.51138 188 179 133 1752393037
0.493095 -0.275971 -1.52201 188 179 133 1752393037
0.496586 -0.26975 -1.53278 188 179 133 1752393037
0.500126 -0.263441 -1.54371 188 179 133 1752393037
0.503717 -0.257041 -1.55479 188 179 133 1752393037
0.507361 -0.250548 -1.56604 188 179 133 1752393037
0.511057 -0.243961 -1.57745 188 179 133 1752393037
0.514808 -0.237278 -1.58903 188 179 133 1752393037
0.518614 -0.230495 -1.60077 188 179 133 1752393037
0.522476 -0.223611 -1.6127 188 179 133 1752393037
0.526397 -0.216624 -1.6248 188 179 133 1752393037
0.530377 -0.209532 -1.63708 188 179 133 1752393037
0.419537 -0.158837 -1.29496 149 73 28 1752393037
0.418412 -0.151524 -1.29149 149 73 28 1752393037
0.417293 -0.144249 -1.28803 149 73 28 1752393037
0.41618 -0.137014 -1.2846 149 73 28 1752393037
0.415073 -0.129817 -1.28118 149 73 28 1752393037
0.413972 -0.122658 -1.27778 149 73 28 1752393037
0.412876 -0.115537 -1.2744 149 73 28 1752393037
0.411787 -0.108454 -1.27104 149 73 28 1752393037
0.410703 -0.101408 -1.26769 149 73 28 1752393037
0.409625 -0.094399 -1.26436 149 73 28 1752393037
0.408552 -0.087427 -1.26105 149 73 28 1752393037
0.407486 -0.080491 -1.25776 149 73 28 1752393037
0.407453 -0.073778 -1.25766 149 73 28 1752393037
0.593164 -0.09764 -1.83089 188 179 133 1752393037
0.598223 -0.088626 -1.8465 188 179 133 1752393037
0.603368 -0.079456 -1.86238 188 179 133 1752393037
0.608603 -0.070127 -1.87854 188 179 133 1752393037
0.61393 -0.060635 -1.89498 188 179 133 1752393037
0.61935 -0.050975 -1.91171 188 179 133 1752393037
0.624867 -0.041144 -1.92874 188 179 133 1752393037
0.630484 -0.031135 -1.94608 188 179 133 1752393037
0.636202 -0.020945 -1.96372 188 179 133 1752393037
0.642024 -0.010568 -1.9817 188 179 133 1752393037
0.647955 0 -2 188 179 133 1752393037
0.653996 0.010765 -2.01865 188 179 133 1752393037
0.66015 0.021733 -2.03765 188 179 133 1752393037
0.666422 0.03291 -2.057 188 179 133 1752393037
0.672814 0.0443 -2.07673 188 179 133 1752393037
0.67933 0.055912 -2.09685 188 179 133 1752393037
0.685973 0.06775 -2.11735 188 179 133 1752393037
0.692747 0.079823 -2.13826 188 179 133 1752393037
0.699656 0.092136 -2.15959 188 179 133 1752393037
0.706705 0.104697 -2.18134 188 179 133 1752393037
0.713897 0.117514 -2.20354 188 179 133 1752393037
0.721237 0.130594 -2.2262 188 179 133 1752393037
0.72873 0.143947 -2.24933 188 179 133 1752393037
0.73638 0.157579 -2.27294 188 179 133 1752393037
0.744192 0.171501 -2.29705 188 179 133 1752393037
0.752171 0.185721 -2.32168 188 179 133 1752393037
0.229425 0.060425 -0.708153 149 73 28 1752393037
0.228898 0.064054 -0.706525 149 73 28 1752393037
0.228373 0.067666 -0.704904 149 73 28 1752393037
0.22785 0.071262 -0.703291 149 73 28 1752393037
0.22733 0.074841 -0.701686 149 73 28 1752393037
0.226812 0.078404 -0.700087 149 73 28 1752393037
0.226297 0.081951 -0.698496 149 73 28 1752393037
0.225784 0.085482 -0.696913 149 73 28 1752393037
0.225273 0.088997 -0.695336 149 73 28 1752393037
0.224764 0.092496 -0.693766 149 73 28 1752393037
0.224258 0.095979 -0.692204 149 73 28 1752393037
0.219762 0.097672 -0.678327 149 73 28 1752393037
0.21927 0.101063 -0.676806 149 73 28 1752393037
0.218779 0.104438 -0.675292 149 73 28 1752393037
0.220499 0.108889 -0.680602 149 73 28 1752393037
0.223353 0.113975 -0.689411 149 73 28 1752393037
0.226282 0.119194 -0.698451 149 73 28 1752393037
0.229289 0.124552 -0.707732 149 73 28 1752393037
0.232376 0.130054 -0.717262 149 73 28 1752393037
0.235548 0.135707 -0.727053 149 73 28 1752393037
0.238808 0.141516 -0.737114 149 73 28 1752393037
0.242159 0.147488 -0.747458 149 73 28 1752393037
0.245606 0.15363 -0.758097 149 73 28 1752393037
0.249152 0.159949 -0.769042 149 73 28 1752393037
0.252802 0.166454 -0.780308 149 73 28 1752393037
0.25656 0.173152 -0.79191 149 73 28 1752393037
0.260432 0.180052 -0.803861 149 73 28 1752393037
0.264423 0.187164 -0.816179 149 73 28 1752393037
0.268538 0.194497 -0.82888 149 73 28 1752393037
0.272783 0.202061 -0.841982 149 73 28 1752393037
0.277164 0.209869 -0.855506 149 73 28 1752393037
0.281689 0.217932 -0.869471 149 73 28 1752393037
0.286363 0.226262 -0.883899 149 73 28 1752393037
0.291195 0.234873 -0.898815 149 73 28 1752393037
0.296193 0.243781 -0.914242 149 73 28 1752393037
0.301366 0.252999 -0.930208 149 73 28 1752393037
0.306723 0.262544 -0.946742 149 73 28 1752393037
0.312273 0.272436 -0.963875 149 73 28 1752393037
0.318028 0.282692 -0.981638 149 73 28 1752393037
0.323999 0.293333 -1.00007 149 73 28 1752393037
0.330199 0.304381 -1.0192 149 73 28 1752393037
0.336641 0.31586 -1.03909 149 73 28 1752393037
0.343338 0.327796 -1.05976 149 73 28 1752393037
0.350308 0.340217 -1.08128 149 73 28 1752393037
0.357567 0.353153 -1.10368 149 73 28 1752393037
0.365133 0.366635 -1.12703 149 73 28 1752393037
0.373026 0.380701 -1.1514 149 73 28 1752393037
0.381267 0.395388 -1.17683 149 73 28 1752393037
0.389882 0.410739 -1.20342 149 73 28 1752393037
0.398894 0.4268 -1.23124 149 73 28 1752393037
0.408333 0.443621 -1.26038 149 73 28 1752393037
0.418229 0.461257 -1.29092 149 73 28 1752393037
0.428617 0.479769 -1.32299 149 73 28 1752393037
0.439534 0.499224 -1.35669 149 73 28 1752393037
0.730741 0.842006 -2.25553 177 105 42 1752393037
0.729173 0.852202 -2.25069 177 105 42 1752393037
0.727611 0.862354 -2.24587 177 105 42 1752393037
0.726056 0.872463 -2.24107 177 105 42 1752393037
0.724508 0.882528 -2.23629 177 105 42 1752393037
0.387503 -0.472565 -1.1815 188 179 133 1752393037
0.389629 -0.468822 -1.18798 188 179 133 1752393037
0.391779 -0.465038 -1.19453 188 179 133 1752393037
0.393952 -0.461212 -1.20116 188 179 133 1752393037
0.39615 -0.457344 -1.20786 188 179 133 1752393037
0.398372 -0.453432 -1.21464 188 179 133 1752393037
0.400619 -0.449475 -1.22149 188 179 133 1752393037
0.402892 -0.445474 -1.22842 188 179 133 1752393037
0.405191 -0.441428 -1.23543 188 179 133 1752393037
0.407516 -0.437335 -1.24252 188 179 133 1752393037
0.409868 -0.433194 -1.24969 188 179 133 1752393037
0.412248 -0.429006 -1.25694 188 179 133 1752393037
0.414655 -0.424768 -1.26428 188 179 133 1752393037
0.41709 -0.420481 -1.27171 188 179 133 1752393037
0.419554 -0.416143 -1.27922 188 179 133 1752393037
0.422048 -0.411754 -1.28682 188 179 133 1752393037
0.424571 -0.407312 -1.29452 188 179 133 1752393037
0.427125 -0.402817 -1.3023 188 179 133 1752393037
0.429709 -0.398267 -1.31018 188 179 133 1752393037
0.432325 -0.393662 -1.31816 188 179 133 1752393037
0.434973 -0.389001 -1.32623 188 179 133 1752393037
0.437654 -0.384282 -1.33441 188 179 133 1752393037
0.440368 -0.379504 -1.34268 188 179 133 1752393037
0.443116 -0.374667 -1.35106 188 179 133 1752393037
0.445898 -0.369769 -1.35954 188 179 133 1752393037
0.448716 -0.36481 -1.36813 188 179 133 1752393037
0.451569 -0.359787 -1.37683 188 179 133 1752393037
0.454459 -0.3547 -1.38564 188 179 133 1752393037
0.457386 -0.349547 -1.39457 188 179 133 1752393037
0.460351 -0.344328 -1.40361 188 179 133 1752393037
0.463355 -0.33904 -1.41277 188 179 133 1752393037
0.466398 -0.333683 -1.42205 188 179 133 1752393037
0.469481 -0.328255 -1.43145 188 179 133 1752393037
0.472606 -0.322755 -1.44097 188 179 133 1752393037
0.475772 -0.317181 -1.45063 188 179 133 1752393037
0.478981 -0.311532 -1.46041 188 179 133 1752393037
0.482234 -0.305807 -1.47033 188 179 133 1752393037
0.485531 -0.300003 -1.48038 188 179 133 1752393037
0.488873 -0.294119 -1.49057 188 179 133 1752393037
0.492262 -0.288153 -1.50091 188 179 133 1752393037
0.495698 -0.282105 -1.51138 188 179 133 1752393037
0.499183 -0.275971 -1.52201 188 179 133 1752393037
0.502716 -0.26975 -1.53278 188 179 133 1752393037
0.506301 -0.263441 -1.54371 188 179 133 1752393037
0.509936 -0.257041 -1.55479 188 179 133 1752393037
0.513624 -0.250548 -1.56604 188 179 133 1752393037
0.517366 -0.243961 -1.57745 188 179 133 1752393037
0.521163 -0.237278 -1.58903 188 179 133 1752393037
0.525016 -0.230495 -1.60077 188 179 133 1752393037
0.528927 -0.223611 -1.6127 188 179 133 1752393037
0.532896 -0.216624 -1.6248 188 179 133 1752393037
0.536925 -0.209532 -1.63708 188 179 133 1752393037
0.42373 -0.158468 -1.29195 149 73 28 1752393037
0.422596 -0.151173 -1.28849 149 73 28 1752393037
0.421469 -0.143916 -1.28506 149 73 28 1752393037
0.420347 -0.136698 -1.28164 149 73 28 1752393037
0.419232 -0.129519 -1.27824 149 73 28 1752393037
0.418122 -0.122377 -1.27485 149 73 28 1752393037
0.417018 -0.115273 -1.27149 149 73 28 1752393037
0.41592 -0.108207 -1.26814 149 73 28 1752393037
0.414828 -0.101178 -1.26481 149 73 28 1752393037
0.413741 -0.094185 -1.2615 149 73 28 1752393037
0.412661 -0.087229 -1.2582 149 73 28 1752393037
0.411585 -0.080309 -1.25492 149 73 28 1752393037
0.410516 -0.073426 -1.25166 149 73 28 1752393037
0.411749 -0.066951 -1.25542 149 73 28 1752393037
0.605608 -0.088626 -1.8465 188 179 133 1752393037
0.610817 -0.079456 -1.86238 188 179 133 1752393037
0.616117 -0.070127 -1.87854 188 179 133 1752393037
0.621509 -0.060635 -1.89498 188 179 133 1752393037
0.626996 -0.050975 -1.91171 188 179 133 1752393037
0.632582 -0.041144 -1.92874 188 179 133 1752393037
0.638267 -0.031135 -1.94607 188 179 133 1752393037
0.644056 -0.020945 -1.96372 188 179 133 1752393037
0.649951 -0.010568 -1.9817 188 179 133 1752393037
0.655954 0 -2 188 179 133 1752393037
0.66207 0.010765 -2.01865 188 179 133 1752393037
0.6683 0.021733 -2.03765 188 179 133 1752393037
0.674649 0.03291 -2.057 188 179 133 1752393037
0.68112 0.0443 -2.07673 188 179 133 1752393037
0.687716 0.055912 -2.09684 188 179 133 1752393037
0.694441 0.06775 -2.11735 188 179 133 1752393037
0.701299 0.079823 -2.13826 188 179 133 1752393037
0.708294 0.092136 -2.15959 188 179 133 1752393037
0.71543 0.104697 -2.18134 188 179 133 1752393037
0.722711 0.117514 -2.20354 188 179 133 1752393037
0.730141 0.130594 -2.2262 188 179 133 1752393037
0.737726 0.143947 -2.24933 188 179 133 1752393037
0.745471 0.157579 -2.27294 188 179 133 1752393037
0.753379 0.171501 -2.29705 188 179 133 1752393037
0.761458 0.185721 -2.32168 188 179 133 1752393037
0.231643 0.060265 -0.70628 149 73 28 1752393037
0.231112 0.063885 -0.70466 149 73 28 1752393037
0.230583 0.067488 -0.703048 149 73 28 1752393037
0.230057 0.071075 -0.701444 149 73 28 1752393037
0.229533 0.074645 -0.699847 149 73 28 1752393037
0.229012 0.078199 -0.698257 149 73 28 1752393037
0.228493 0.081737 -0.696674 149 73 28 1752393037
0.227976 0.085259 -0.695098 149 73 28 1752393037
0.227462 0.088766 -0.69353 149 73 28 1752393037
0.226949 0.092256 -0.691969 149 73 28 1752393037
0.22644 0.095731 -0.690414 149 73 28 1752393037
0.221902 0.09742 -0.676577 149 73 28 1752393037
0.221405 0.100802 -0.675064 149 73 28 1752393037
0.220911 0.10417 -0.673558 149 73 28 1752393037
0.223222 0.108889 -0.680602 149 73 28 1752393037
0.226111 0.113975 -0.689411 149 73 28 1752393037
0.229076 0.119194 -0.698451 149 73 28 1752393037
0.232119 0.124552 -0.707732 149 73 28 1752393037
0.235245 0.130054 -0.717262 149 73 28 1752393037
0.238456 0.135707 -0.727053 149 73 28 1752393037
0.241756 0.141516 -0.737114 149 73 28 1752393037
0.245149 0.147488 -0.747458 149 73 28 1752393037
0.248638 0.15363 -0.758096 149 73 28 1752393037
0.252228 0.159949 -0.769042 149 73 28 1752393037
0.255923 0.166454 -0.780308 149 73 28 1752393037
0.259728 0.173152 -0.79191 149 73 28 1752393037
0.263648 0.180052 -0.803861 149 73 28 1752393037
0.267688 0.187164 -0.816179 149 73 28 1752393037
0.271853 0.194497 -0.82888 149 73 28 1752393037
0.276151 0.202061 -0.841982 149 73 28 1752393037
0.280586 0.209869 -0.855506 149 73 28 1752393037
0.285166 0.217932 -0.869471 149 73 28 1752393037
0.289898 0.226262 -0.883899 149 73 28 1752393037
0.29479 0.234873 -0.898815 149 73 28 1752393037
0.29985 0.243781 -0.914242 149 73 28 1752393037
0.305087 0.252999 -0.930209 149 73 28 1752393037
0.310509 0.262544 -0.946742 149 73 28 1752393037
0.316128 0.272436 -0.963875 149 73 28 1752393037
0.321954 0.282692 -0.981638 149 73 28 1752393037
0.327999 0.293333 -1.00007 149 73 28 1752393037
0.334275 0.304381 -1.0192 149 73 28 1752393037
0.340797 0.31586 -1.03909 149 73 28 1752393037
0.347577 0.327796 -1.05976 149 73 28 1752393037
0.354633 0.340217 -1.08127 149 73 28 1752393037
0.361981 0.353152 -1.10368 149 73 28 1752393037
0.369641 0.366635 -1.12703 149 73 28 1752393037
0.377631 0.380701 -1.1514 149 73 28 1752393037
0.385974 0.395388 -1.17683 149 73 28 1752393037
0.394695 0.410739 -1.20342 149 73 28 1752393037
0.403818 0.4268 -1.23124 149 73 28 1752393037
0.413374 0.443621 -1.26038 149 73 28 1752393037
0.423392 0.461257 -1.29092 149 73 28 1752393037
0.433909 0.479769 -1.32299 149 73 28 1752393037
0.444961 0.499224 -1.35668 149 73 28 1752393037
0.738387 0.840441 -2.25134 177 105 42 1752393037
0.736805 0.850621 -2.24652 177 105 42 1752393037
0.73523 0.860757 -2.24171 177 105 42 1752393037
0.733662 0.870851 -2.23693 177 105 42 1752393037
0.7321 0.880901 -2.23217 177 105 42 1752393037
0.392229 -0.472565 -1.1815 188 179 133 1752393037
0.394381 -0.468822 -1.18798 188 179 133 1752393037
0.396556 -0.465038 -1.19453 188 179 133 1752393037
0.398756 -0.461212 -1.20116 188 179 133 1752393037
0.400981 -0.457344 -1.20786 188 179 133 1752393037
0.40323 -0.453432 -1.21464 188 179 133 1752393037
0.405505 -0.449475 -1.22149 188 179 133 1752393037
0.407806 -0.445474 -1.22842 188 179 133 1752393037
0.410132 -0.441428 -1.23543 188 179 133 1752393037
0.412486 -0.437335 -1.24252 188 179 133 1752393037
0.414867 -0.433194 -1.24969 188 179 133 1752393037
0.417275 -0.429006 -1.25694 188 179 133 1752393037
0.419712 -0.424768 -1.26428 188 179 133 1752393037
0.422177 -0.420481 -1.27171 188 179 133 1752393037
0.424671 -0.416143 -1.27922 188 179 133 1752393037
0.427195 -0.411754 -1.28682 188 179 133 1752393037
0.429749 -0.407312 -1.29452 188 179 133 1752393037
0.432334 -0.402817 -1.3023 188 179 133 1752393037
0.43495 -0.398267 -1.31018 188 179 133 1752393037
0.437598 -0.393662 -1.31816 188 179 133 1752393037
0.440278 -0.389001 -1.32623 188 179 133 1752393037
0.442991 -0.384282 -1.33441 188 179 133 1752393037
0.445738 -0.379504 -1.34268 188 179 133 1752393037
0.44852 -0.374667 -1.35106 188 179 133 1752393037
0.451336 -0.369769 -1.35954 188 179 133 1752393037
0.454188 -0.36481 -1.36813 188 179 133 1752393037
0.457076 -0.359787 -1.37683 188 179 133 1752393037
0.460001 -0.3547 -1.38564 188 179 133 1752393037
0.462964 -0.349547 -1.39457 188 179 133 1752393037
0.465965 -0.344328 -1.40361 188 179 133 1752393037
0.469005 -0.33904 -1.41277 188 179 133 1752393037
0.472086 -0.333683 -1.42205 188 179 133 1752393037
0.475207 -0.328255 -1.43145 188 179 133 1752393037
0.478369 -0.322755 -1.44097 188 179 133 1752393037
0.481574 -0.317181 -1.45063 188 179 133 1752393037
0.484822 -0.311532 -1.46041 188 179 133 1752393037
0.488115 -0.305807 -1.47033 188 179 133 1752393037
0.491452 -0.300003 -1.48038 188 179 133 1752393037
0.494835 -0.294119 -1.49057 188 179 133 1752393037
0.498265 -0.288153 -1.50091 188 179 133 1752393037
0.501743 -0.282105 -1.51138 188 179 133 1752393037
0.50527 -0.275971 -1.52201 188 179 133 1752393037
0.508847 -0.26975 -1.53278 188 179 133 1752393037
0.512475 -0.263441 -1.54371 188 179 133 1752393037
0.516155 -0.257041 -1.55479 188 179 133 1752393037
0.519888 -0.250549 -1.56604 188 179 133 1752393037
0.523676 -0.243961 -1.57745 188 179 133 1752393037
0.527519 -0.237278 -1.58903 188 179 133 1752393037
0.531419 -0.230495 -1.60077 188 179 133 1752393037
0.535377 -0.223611 -1.6127 188 179 133 1752393037
0.539394 -0.216624 -1.6248 188 179 133 1752393037
0.543473 -0.209532 -1.63708 188 179 133 1752393037
0.547613 -0.202331 -1.64955 188 179 133 1752393037
0.426761 -0.150823 -1.28552 149 73 28 1752393037
0.425625 -0.143584 -1.28209 149 73 28 1752393037
0.424495 -0.136384 -1.27869 149 73 28 1752393037
0.423371 -0.129222 -1.27531 149 73 28 1752393037
0.422253 -0.122097 -1.27194 149 73 28 1752393037
0.421141 -0.11501 -1.26859 149 73 28 1752393037
0.420035 -0.107961 -1.26525 149 73 28 1752393037
0.418934 -0.100948 -1.26194 149 73 28 1752393037
0.417839 -0.093972 -1.25864 149 73 28 1752393037
0.41675 -0.087032 -1.25536 149 73 28 1752393037
0.415667 -0.080129 -1.2521 149 73 28 1752393037
0.414589 -0.073261 -1.24885 149 73 28 1752393037
0.413517 -0.066428 -1.24562 149 73 28 1752393037
0.414798 -0.059971 -1.24948 149 73 28 1752393037
0.618266 -0.079456 -1.86238 188 179 133 1752393037
0.623631 -0.070127 -1.87854 188 179 133 1752393037
0.629088 -0.060635 -1.89498 188 179 133 1752393037
0.634643 -0.050975 -1.91171 188 179 133 1752393037
0.640296 -0.041144 -1.92874 188 179 133 1752393037
0.646051 -0.031135 -1.94608 188 179 133 1752393037
0.65191 -0.020945 -1.96372 188 179 133 1752393037
0.657877 -0.010568 -1.9817 188 179 133 1752393037
0.663954 0 -2 188 179 133 1752393037
0.670144 0.010765 -2.01865 188 179 133 1752393037
0.67645 0.021733 -2.03765 188 179 133 1752393037
0.682877 0.03291 -2.057 188 179 133 1752393037
0.689426 0.0443 -2.07673 188 179 133 1752393037
0.696103 0.055912 -2.09685 188 179 133 1752393037
0.70291 0.06775 -2.11735 188 179 133 1752393037
0.709852 0.079823 -2.13826 188 179 133 1752393037
0.716932 0.092136 -2.15959 188 179 133 1752393037
0.724154 0.104697 -2.18134 188 179 133 1752393037
0.731524 0.117514 -2.20354 188 179 133 1752393037
0.739045 0.130594 -2.2262 188 179 133 1752393037
0.746723 0.143947 -2.24933 188 179 133 1752393037
0.754562 0.157579 -2.27294 188 179 133 1752393037
0.762567 0.171501 -2.29705 188 179 133 1752393037
0.770744 0.185721 -2.32168 188 179 133 1752393037
0.23385 0.060106 -0.704417 149 73 28 1752393037
0.233315 0.063717 -0.702806 149 73 28 1752393037
0.232783 0.067311 -0.701202 149 73 28 1752393037
0.232253 0.070888 -0.699606 149 73 28 1752393037
0.231725 0.07445 -0.698017 149 73 28 1752393037
0.2312 0.077995 -0.696436 149 73 28 1752393037
0.230677 0.081525 -0.694861 149 73 28 1752393037
0.230157 0.085038 -0.693294 149 73 28 1752393037
0.229639 0.088536 -0.691733 149 73 28 1752393037
0.229123 0.092017 -0.69018 149 73 28 1752393037
0.224532 0.09378 -0.676348 149 73 28 1752393037
0.22403 0.09717 -0.674836 149 73 28 1752393037
0.22353 0.100544 -0.673331 149 73 28 1752393037
0.223093 0.103931 -0.672015 149 73 28 1752393037
0.225944 0.108889 -0.680602 149 73 28 1752393037
0.228868 0.113975 -0.689411 149 73 28 1752393037
0.231869 0.119194 -0.698451 149 73 28 1752393037
0.23495 0.124552 -0.707732 149 73 28 1752393037
0.238114 0.130054 -0.717262 149 73 28 1752393037
0.241364 0.135707 -0.727053 149 73 28 1752393037
0.244704 0.141516 -0.737114 149 73 28 1752393037
0.248138 0.147488 -0.747458 149 73 28 1752393037
0.25167 0.15363 -0.758096 149 73 28 1752393037
0.255304 0.159949 -0.769042 149 73 28 1752393037
0.259044 0.166454 -0.780308 149 73 28 1752393037
0.262895 0.173152 -0.79191 149 73 28 1752393037
0.266863 0.180052 -0.803861 149 73 28 1752393037
0.270952 0.187164 -0.816179 149 73 28 1752393037
0.275168 0.194497 -0.82888 149 73 28 1752393037
0.279518 0.202061 -0.841982 149 73 28 1752393037
0.284008 0.209869 -0.855506 149 73 28 1752393037
0.288644 0.217932 -0.869471 149 73 28 1752393037
0.293434 0.226262 -0.8839 149 73 28 1752393037
0.298385 0.234873 -0.898815 149 73 28 1752393037
0.303507 0.243781 -0.914242 149 73 28 1752393037
0.308807 0.252999 -0.930208 149 73 28 1752393037
0.314296 0.262544 -0.946742 149 73 28 1752393037
0.319984 0.272436 -0.963875 149 73 28 1752393037
0.325881 0.282692 -0.981639 149 73 28 1752393037
0.331999 0.293333 -1.00007 149 73 28 1752393037
0.338352 0.304381 -1.0192 149 73 28 1752393037
0.344953 0.31586 -1.03909 149 73 28 1752393037
0.351816 0.327796 -1.05976 149 73 28 1752393037
0.358958 0.340217 -1.08128 149 73 28 1752393037
0.366396 0.353153 -1.10368 149 73 28 1752393037
0.374148 0.366635 -1.12703 149 73 28 1752393037
0.382236 0.380701 -1.1514 149 73 28 1752393037
0.390681 0.395388 -1.17683 149 73 28 1752393037
0.399508 0.410739 -1.20342 149 73 28 1752393037
0.408743 0.4268 -1.23124 149 73 28 1752393037
0.418415 0.443621 -1.26038 149 73 28 1752393037
0.428556 0.461257 -1.29092 149 73 28 1752393037
0.4392 0.479769 -1.32299 149 73 28 1752393037
0.450387 0.499224 -1.35668 149 73 28 1752393037
0.746005 0.838881 -2.24716 177 105 42 1752393037
0.74441 0.849045 -2.24236 177 105 42 1752393037
0.742821 0.859167 -2.23757 177 105 42 1752393037
0.74124 0.869245 -2.23281 177 105 42 1752393037
0.739665 0.87928 -2.22807 177 105 42 1752393037
0.396954 -0.472565 -1.1815 188 179 133 1752393037
0.399132 -0.468822 -1.18798 188 179 133 1752393037
0.401334 -0.465038 -1.19453 188 179 133 1752393037
0.403561 -0.461212 -1.20116 188 179 133 1752393037
0.405812 -0.457344 -1.20786 188 179 133 1752393037
0.408088 -0.453432 -1.21464 188 179 133 1752393037
0.410391 -0.449475 -1.22149 188 179 133 1752393037
0.412719 -0.445474 -1.22842 188 179 133 1752393037
0.415074 -0.441428 -1.23543 188 179 133 1752393037
0.417456 -0.437335 -1.24252 188 179 133 1752393037
0.419865 -0.433194 -1.24969 188 179 133 1752393037
0.422302 -0.429006 -1.25694 188 179 133 1752393037
0.424768 -0.424768 -1.26428 188 179 133 1752393037
0.427263 -0.420481 -1.27171 188 179 133 1752393037
0.429787 -0.416143 -1.27922 188 179 133 1752393037
0.432342 -0.411754 -1.28682 188 179 133 1752393037
0.434927 -0.407312 -1.29452 188 179 133 1752393037
0.437542 -0.402817 -1.3023 188 179 133 1752393037
0.44019 -0.398267 -1.31018 188 179 133 1752393037
0.44287 -0.393662 -1.31816 188 179 133 1752393037
0.445582 -0.389001 -1.32623 188 179 133 1752393037
0.448329 -0.384282 -1.33441 188 179 133 1752393037
0.451109 -0.379504 -1.34268 188 179 133 1752393037
0.453924 -0.374667 -1.35106 188 179 133 1752393037
0.456774 -0.369769 -1.35954 188 179 133 1752393037
0.45966 -0.36481 -1.36813 188 179 133 1752393037
0.462583 -0.359787 -1.37683 188 179 133 1752393037
0.465543 -0.3547 -1.38564 188 179 133 1752393037
0.468542 -0.349547 -1.39457 188 179 133 1752393037
0.471579 -0.344328 -1.40361 188 179 133 1752393037
0.474656 -0.33904 -1.41277 188 179 133 1752393037
0.477773 -0.333683 -1.42205 188 179 133 1752393037
0.480932 -0.328255 -1.43145 188 179 133 1752393037
0.484133 -0.322755 -1.44097 188 179 133 1752393037
0.487376 -0.317181 -1.45063 188 179 133 1752393037
0.490664 -0.311532 -1.46041 188 179 133 1752393037
0.493995 -0.305807 -1.47033 188 179 133 1752393037
0.497373 -0.300003 -1.48038 188 179 133 1752393037
0.500797 -0.294119 -1.49057 188 179 133 1752393037
0.504268 -0.288153 -1.50091 188 179 133 1752393037
0.507788 -0.282105 -1.51138 188 179 133 1752393037
0.511358 -0.275971 -1.52201 188 179 133 1752393037
0.514978 -0.26975 -1.53278 188 179 133 1752393037
0.518649 -0.263441 -1.54371 188 179 133 1752393037
0.522374 -0.257041 -1.55479 188 179 133 1752393037
0.526152 -0.250548 -1.56604 188 179 133 1752393037
0.529985 -0.243961 -1.57745 188 179 133 1752393037
0.533875 -0.237278 -1.58903 188 179 133 1752393037
0.537821 -0.230495 -1.60077 188 179 133 1752393037
0.541827 -0.223611 -1.6127 188 179 133 1752393037
0.545893 -0.216624 -1.6248 188 179 133 1752393037
0.550021 -0.209532 -1.63708 188 179 133 1752393037
0.554211 -0.202331 -1.64955 188 179 133 1752393037
0.558466 -0.19502 -1.66222 188 179 133 1752393037
0.429762 -0.143254 -1.27915 149 73 28 1752393037
0.428624 -0.136071 -1.27576 149 73 28 1752393037
0.427492 -0.128926 -1.27239 149 73 28 1752393037
0.426365 -0.121819 -1.26903 149 73 28 1752393037
0.425245 -0.114749 -1.2657 149 73 28 1752393037
0.42413 -0.107716 -1.26238 149 73 28 1752393037
0.423022 -0.100719 -1.25908 149 73 28 1752393037
0.421919 -0.09376 -1.2558 149 73 28 1752393037
0.420821 -0.086836 -1.25253 149 73 28 1752393037
0.41973 -0.079949 -1.24928 149 73 28 1752393037
0.418644 -0.073097 -1.24605 149 73 28 1752393037
0.417564 -0.06628 -1.24284 149 73 28 1752393037
0.416489 -0.059498 -1.23964 149 73 28 1752393037
0.41542 -0.052752 -1.23646 149 73 28 1752393037
0.631144 -0.070127 -1.87854 188 179 133 1752393037
0.636668 -0.060635 -1.89498 188 179 133 1752393037
0.642289 -0.050975 -1.91171 188 179 133 1752393037
0.648011 -0.041144 -1.92874 188 179 133 1752393037
0.653835 -0.031135 -1.94608 188 179 133 1752393037
0.659765 -0.020945 -1.96373 188 179 133 1752393037
0.665803 -0.010568 -1.9817 188 179 133 1752393037
0.671953 0 -2 188 179 133 1752393037
0.678218 0.010765 -2.01865 188 179 133 1752393037
0.6846 0.021733 -2.03765 188 179 133 1752393037
0.691104 0.03291 -2.057 188 179 133 1752393037
0.697733 0.0443 -2.07673 188 179 133 1752393037
0.70449 0.055912 -2.09684 188 179 133 1752393037
0.711379 0.06775 -2.11735 188 179 133 1752393037
0.718404 0.079823 -2.13826 188 179 133 1752393037
0.72557 0.092136 -2.15959 188 179 133 1752393037
0.732879 0.104697 -2.18134 188 179 133 1752393037
0.740338 0.117514 -2.20354 188 179 133 1752393037
0.74795 0.130594 -2.2262 188 179 133 1752393037
0.75572 0.143947 -2.24933 188 179 133 1752393037
0.763653 0.157579 -2.27294 188 179 133 1752393037
0.771754 0.171501 -2.29705 188 179 133 1752393037
0.236585 0.05633 -0.704173 149 73 28 1752393037
0.236044 0.059948 -0.702563 149 73 28 1752393037
0.235506 0.063549 -0.700961 149 73 28 1752393037
0.23497 0.067134 -0.699366 149 73 28 1752393037
0.234437 0.070703 -0.697778 149 73 28 1752393037
0.233906 0.074256 -0.696197 149 73 28 1752393037
0.233377 0.077792 -0.694624 149 73 28 1752393037
0.232851 0.081313 -0.693058 149 73 28 1752393037
0.232327 0.084818 -0.691498 149 73 28 1752393037
0.231805 0.088307 -0.689946 149 73 28 1752393037
0.231286 0.09178 -0.688401 149 73 28 1752393037
0.226652 0.093539 -0.674609 149 73 28 1752393037
0.226147 0.09692 -0.673104 149 73 28 1752393037
0.225644 0.100286 -0.671607 149 73 28 1752393037
0.225781 0.103931 -0.672015 149 73 28 1752393037
0.228666 0.108889 -0.680602 149 73 28 1752393037
0.231626 0.113975 -0.689411 149 73 28 1752393037
0.234663 0.119194 -0.698451 149 73 28 1752393037
0.237781 0.124552 -0.707732 149 73 28 1752393037
0.240983 0.130054 -0.717262 149 73 28 1752393037
0.244272 0.135707 -0.727053 149 73 28 1752393037
0.247653 0.141516 -0.737114 149 73 28 1752393037
0.251128 0.147488 -0.747458 149 73 28 1752393037
0.254702 0.15363 -0.758096 149 73 28 1752393037
0.25838 0.159949 -0.769042 149 73 28 1752393037
0.262165 0.166454 -0.780308 149 73 28 1752393037
0.266063 0.173152 -0.79191 149 73 28 1752393037
0.270078 0.180052 -0.803861 149 73 28 1752393037
0.274216 0.187164 -0.816179 149 73 28 1752393037
0.278484 0.194497 -0.82888 149 73 28 1752393037
0.282886 0.202061 -0.841982 149 73 28 1752393037
0.287429 0.209869 -0.855506 149 73 28 1752393037
0.292121 0.217932 -0.869471 149 73 28 1752393037
0.296969 0.226262 -0.883899 149 73 28 1752393037
0.30198 0.234874 -0.898815 149 73 28 1752393037
0.307164 0.243781 -0.914242 149 73 28 1752393037
0.312528 0.252999 -0.930209 149 73 28 1752393037
0.318083 0.262545 -0.946742 149 73 28 1752393037
0.323839 0.272436 -0.963875 149 73 28 1752393037
0.329807 0.282692 -0.981639 149 73 28 1752393037
0.335999 0.293333 -1.00007 149 73 28 1752393037
0.342429 0.304381 -1.0192 149 73 28 1752393037
0.349109 0.31586 -1.03909 149 73 28 1752393037
0.356055 0.327796 -1.05976 149 73 28 1752393037
0.363283 0.340217 -1.08128 149 73 28 1752393037
0.37081 0.353152 -1.10368 149 73 28 1752393037
0.378656 0.366635 -1.12703 149 73 28 1752393037
0.386842 0.380701 -1.1514 149 73 28 1752393037
0.395388 0.395388 -1.17683 149 73 28 1752393037
0.404322 0.410739 -1.20342 149 73 28 1752393037
0.413668 0.4268 -1.23124 149 73 28 1752393037
0.423456 0.443621 -1.26038 149 73 28 1752393037
0.433719 0.461257 -1.29092 149 73 28 1752393037
0.444492 0.479769 -1.32299 149 73 28 1752393037
0.455813 0.499224 -1.35668 149 73 28 1752393037
0.753594 0.837327 -2.243 177 105 42 1752393037
0.751986 0.847476 -2.23821 177 105 42 1752393037
0.750384 0.857582 -2.23345 177 105 42 1752393037
0.74879 0.867645 -2.2287 177 105 42 1752393037
0.747201 0.877665 -2.22397 177 105 42 1752393037
0.40168 -0.472565 -1.1815 188 179 133 1752393037
0.403884 -0.468822 -1.18798 188 179 133 1752393037
0.406112 -0.465038 -1.19453 188 179 133 1752393037
0.408365 -0.461212 -1.20116 188 179 133 1752393037
0.410643 -0.457344 -1.20786 188 179 133 1752393037
0.412947 -0.453432 -1.21464 188 179 133 1752393037
0.415276 -0.449475 -1.22149 188 179 133 1752393037
0.417632 -0.445474 -1.22842 188 179 133 1752393037
0.420015 -0.441428 -1.23543 188 179 133 1752393037
0.422425 -0.437335 -1.24252 188 179 133 1752393037
0.424863 -0.433194 -1.24969 188 179 133 1752393037
0.42733 -0.429006 -1.25694 188 179 133 1752393037
0.429825 -0.424768 -1.26428 188 179 133 1752393037
0.43235 -0.420481 -1.27171 188 179 133 1752393037
0.434904 -0.416143 -1.27922 188 179 133 1752393037
0.437489 -0.411754 -1.28682 188 179 133 1752393037
0.440104 -0.407312 -1.29452 188 179 133 1752393037
0.442751 -0.402817 -1.3023 188 179 133 1752393037
0.44543 -0.398267 -1.31018 188 179 133 1752393037
0.448142 -0.393662 -1.31816 188 179 133 1752393037
0.450887 -0.389001 -1.32623 188 179 133 1752393037
0.453666 -0.384282 -1.33441 188 179 133 1752393037
0.456479 -0.379504 -1.34268 188 179 133 1752393037
0.459327 -0.374667 -1.35106 188 179 133 1752393037
0.462212 -0.369769 -1.35954 188 179 133 1752393037
0.465132 -0.36481 -1.36813 188 179 133 1752393037
0.46809 -0.359787 -1.37683 188 179 133 1752393037
0.471085 -0.3547 -1.38564 188 179 133 1752393037
0.47412 -0.349547 -1.39457 188 179 133 1752393037
0.477193 -0.344328 -1.40361 188 179 133 1752393037
0.480307 -0.33904 -1.41277 188 179 133 1752393037
0.483461 -0.333683 -1.42205 188 179 133 1752393037
0.486657 -0.328255 -1.43145 188 179 133 1752393037
0.489896 -0.322755 -1.44097 188 179 133 1752393037
0.493178 -0.317181 -1.45063 188 179 133 1752393037
0.496505 -0.311532 -1.46041 188 179 133 1752393037
0.499876 -0.305807 -1.47033 188 179 133 1752393037
0.503294 -0.300003 -1.48038 188 179 133 1752393037
0.506759 -0.294119 -1.49057 188 179 133 1752393037
0.510272 -0.288153 -1.50091 188 179 133 1752393037
0.513833 -0.282105 -1.51138 188 179 133 1752393037
0.517445 -0.275971 -1.52201 188 179 133 1752393037
0.521108 -0.26975 -1.53278 188 179 133 1752393037
0.524824 -0.263441 -1.54371 188 179 133 1752393037
0.528592 -0.257041 -1.55479 188 179 133 1752393037
0.532416 -0.250548 -1.56604 188 179 133 1752393037
0.536294 -0.243961 -1.57745 188 179 133 1752393037
0.54023 -0.237278 -1.58903 188 179 133 1752393037
0.544224 -0.230495 -1.60077 188 179 133 1752393037
0.548278 -0.223611 -1.6127 188 179 133 1752393037
0.552392 -0.216624 -1.6248 188 179 133 1752393037
0.556569 -0.209532 -1.63708 188 179 133 1752393037
0.560809 -0.202331 -1.64955 188 179 133 1752393037
0.565114 -0.19502 -1.66222 188 179 133 1752393037
0.433881 -0.142925 -1.27621 149 73 28 1752393037
0.432734 -0.13576 -1.27284 149 73 28 1752393037
0.431593 -0.128632 -1.26948 149 73 28 1752393037
0.430459 -0.121541 -1.26615 149 73 28 1752393037
0.42933 -0.114488 -1.26283 149 73 28 1752393037
0.428207 -0.107472 -1.25952 149 73 28 1752393037
0.427091 -0.100492 -1.25624 149 73 28 1752393037
0.42598 -0.093548 -1.25297 149 73 28 1752393037
0.424874 -0.086641 -1.24972 149 73 28 1752393037
0.423775 -0.079769 -1.24648 149 73 28 1752393037
0.422681 -0.072933 -1.24327 149 73 28 1752393037
0.421592 -0.066132 -1.24007 149 73 28 1752393037
0.42051 -0.059366 -1.23688 149 73 28 1752393037
0.419433 -0.052635 -1.23371 149 73 28 1752393037
0.418361 -0.045938 -1.23056 149 73 28 1752393037
0.644247 -0.060635 -1.89498 188 179 133 1752393037
0.649935 -0.050975 -1.91171 188 179 133 1752393037
0.655725 -0.041144 -1.92874 188 179 133 1752393037
0.661618 -0.031135 -1.94608 188 179 133 1752393037
0.667619 -0.020945 -1.96372 188 179 133 1752393037
0.673729 -0.010568 -1.9817 188 179 133 1752393037
0.679953 0 -2 188 179 133 1752393037
0.686292 0.010765 -2.01865 188 179 133 1752393037
0.69275 0.021733 -2.03765 188 179 133 1752393037
0.699332 0.03291 -2.057 188 179 133 1752393037
0.706039 0.0443 -2.07673 188 179 133 1752393037
0.712876 0.055912 -2.09684 188 179 133 1752393037
0.719848 0.06775 -2.11735 188 179 133 1752393037
0.726957 0.079823 -2.13826 188 179 133 1752393037
0.734207 0.092136 -2.15959 188 179 133 1752393037
0.741604 0.104697 -2.18134 188 179 133 1752393037
0.749151 0.117514 -2.20354 188 179 133 1752393037
0.756854 0.130594 -2.2262 188 179 133 1752393037
0.764716 0.143947 -2.24933 188 179 133 1752393037
0.772744 0.157579 -2.27294 188 179 133 1752393037
0.780942 0.171501 -2.29705 188 179 133 1752393037
0.238772 0.056182 -0.702321 149 73 28 1752393037
0.238228 0.05979 -0.70072 149 73 28 1752393037
0.237686 0.063383 -0.699126 149 73 28 1752393037
0.237146 0.066959 -0.697539 149 73 28 1752393037
0.236609 0.070519 -0.695959 149 73 28 1752393037
0.236075 0.074063 -0.694387 149 73 28 1752393037
0.235543 0.077591 -0.692822 149 73 28 1752393037
0.235013 0.081102 -0.691264 149 73 28 1752393037
0.234485 0.084599 -0.689712 149 73 28 1752393037
0.23396 0.088079 -0.688168 149 73 28 1752393037
0.233438 0.091544 -0.686631 149 73 28 1752393037
0.228762 0.093299 -0.672878 149 73 28 1752393037
0.228253 0.096672 -0.671381 149 73 28 1752393037
0.227747 0.10003 -0.669891 149 73 28 1752393037
0.228469 0.103931 -0.672015 149 73 28 1752393037
0.231388 0.108889 -0.680602 149 73 28 1752393037
0.234383 0.113975 -0.689411 149 73 28 1752393037
0.237457 0.119194 -0.698451 149 73 28 1752393037
0.240612 0.124552 -0.707732 149 73 28 1752393037
0.243852 0.130054 -0.717262 149 73 28 1752393037
0.24718 0.135707 -0.727053 149 73 28 1752393037
0.250601 0.141516 -0.737114 149 73 28 1752393037
0.254118 0.147488 -0.747458 149 73 28 1752393037
0.257734 0.15363 -0.758097 149 73 28 1752393037
0.261456 0.159949 -0.769042 149 73 28 1752393037
0.265286 0.166454 -0.780308 149 73 28 1752393037
0.26923 0.173152 -0.79191 149 73 28 1752393037
0.273293 0.180052 -0.803861 149 73 28 1752393037
0.277481 0.187164 -0.816179 149 73 28 1752393037
0.281799 0.194497 -0.82888 149 73 28 1752393037
0.286254 0.202061 -0.841982 149 73 28 1752393037
0.290851 0.209869 -0.855506 149 73 28 1752393037
0.295599 0.217932 -0.869471 149 73 28 1752393037
0.300504 0.226262 -0.883899 149 73 28 1752393037
0.305575 0.234874 -0.898815 149 73 28 1752393037
0.31082 0.243781 -0.914242 149 73 28 1752393037
0.316248 0.252999 -0.930209 149 73 28 1752393037
0.32187 0.262545 -0.946743 149 73 28 1752393037
0.327694 0.272436 -0.963875 149 73 28 1752393037
0.333733 0.282692 -0.981639 149 73 28 1752393037
0.339999 0.293333 -1.00007 149 73 28 1752393037
0.346505 0.304381 -1.01921 149 73 28 1752393037
0.353265 0.31586 -1.03909 149 73 28 1752393037
0.360293 0.327796 -1.05976 149 73 28 1752393037
0.367607 0.340217 -1.08128 149 73 28 1752393037
0.375225 0.353152 -1.10368 149 73 28 1752393037
0.383164 0.366635 -1.12703 149 73 28 1752393037
0.391447 0.380701 -1.1514 149 73 28 1752393037
0.400095 0.395388 -1.17683 149 73 28 1752393037
0.409135 0.410739 -1.20342 149 73 28 1752393037
0.418592 0.4268 -1.23124 149 73 28 1752393037
0.428497 0.443621 -1.26038 149 73 28 1752393037
0.438882 0.461257 -1.29092 149 73 28 1752393037
0.449783 0.479769 -1.32299 149 73 28 1752393037
0.46124 0.499224 -1.35669 149 73 28 1752393037
0.761156 0.835779 -2.23885 177 105 42 1752393037
0.759534 0.845912 -2.23408 177 105 42 1752393037
0.757919 0.856003 -2.22933 177 105 42 1752393037
0.756312 0.866051 -2.2246 177 105 42 1752393037
0.754711 0.876056 -2.21989 177 105 42 1752393037
0.38216 -0.444372 -1.11101 149 73 28 1752393037
0.382553 -0.438898 -1.11215 149 73 28 1752393037
0.382947 -0.433412 -1.1133 149 73 28 1752393037
0.413169 -0.461212 -1.20116 188 179 133 1752393037
0.415474 -0.457344 -1.20786 188 179 133 1752393037
0.417805 -0.453431 -1.21464 188 179 133 1752393037
0.420162 -0.449475 -1.22149 188 179 133 1752393037
0.422546 -0.445474 -1.22842 188 179 133 1752393037
0.424956 -0.441428 -1.23543 188 179 133 1752393037
0.427395 -0.437335 -1.24252 188 179 133 1752393037
0.429862 -0.433194 -1.24969 188 179 133 1752393037
0.432357 -0.429006 -1.25694 188 179 133 1752393037
0.434882 -0.424768 -1.26428 188 179 133 1752393037
0.437436 -0.420481 -1.27171 188 179 133 1752393037
0.44002 -0.416143 -1.27922 188 179 133 1752393037
0.442636 -0.411754 -1.28682 188 179 133 1752393037
0.445282 -0.407312 -1.29452 188 179 133 1752393037
0.44796 -0.402817 -1.3023 188 179 133 1752393037
0.450671 -0.398267 -1.31018 188 179 133 1752393037
0.453414 -0.393662 -1.31816 188 179 133 1752393037
0.456192 -0.389001 -1.32623 188 179 133 1752393037
0.459003 -0.384282 -1.33441 188 179 133 1752393037
0.461849 -0.379504 -1.34268 188 179 133 1752393037
0.464731 -0.374667 -1.35106 188 179 133 1752393037
0.467649 -0.369769 -1.35954 188 179 133 1752393037
0.470604 -0.36481 -1.36813 188 179 133 1752393037
0.473597 -0.359787 -1.37683 188 179 133 1752393037
0.476628 -0.3547 -1.38564 188 179 133 1752393037
0.479697 -0.349547 -1.39457 188 179 133 1752393037
0.482807 -0.344328 -1.40361 188 179 133 1752393037
0.485957 -0.33904 -1.41277 188 179 133 1752393037
0.489149 -0.333683 -1.42205 188 179 133 1752393037
0.492383 -0.328255 -1.43145 188 179 133 1752393037
0.49566 -0.322755 -1.44097 188 179 133 1752393037
0.49898 -0.317181 -1.45063 188 179 133 1752393037
0.502346 -0.311532 -1.46041 188 179 133 1752393037
0.505757 -0.305807 -1.47033 188 179 133 1752393037
0.509215 -0.300003 -1.48038 188 179 133 1752393037
0.512721 -0.294119 -1.49057 188 179 133 1752393037
0.516275 -0.288153 -1.50091 188 179 133 1752393037
0.519879 -0.282105 -1.51138 188 179 133 1752393037
0.523533 -0.275971 -1.52201 188 179 133 1752393037
0.527239 -0.26975 -1.53278 188 179 133 1752393037
0.530998 -0.263441 -1.54371 188 179 133 1752393037
0.534811 -0.257041 -1.55479 188 179 133 1752393037
0.538679 -0.250548 -1.56604 188 179 133 1752393037
0.542604 -0.243961 -1.57745 188 179 133 1752393037
0.546586 -0.237278 -1.58903 188 179 133 1752393037
0.550627 -0.230495 -1.60077 188 179 133 1752393037
0.554728 -0.223611 -1.6127 188 179 133 1752393037
0.558891 -0.216624 -1.6248 188 179 133 1752393037
0.563116 -0.209532 -1.63708 188 179 133 1752393037
0.567406 -0.202331 -1.64955 188 179 133 1752393037
0.571762 -0.19502 -1.66222 188 179 133 1752393037
0.576186 -0.187595 -1.67508 188 179 133 1752393037
0.436825 -0.13545 -1.26993 149 73 28 1752393037
0.435676 -0.128339 -1.26659 149 73 28 1752393037
0.434534 -0.121265 -1.26327 149 73 28 1752393037
0.433397 -0.114229 -1.25996 149 73 28 1752393037
0.432266 -0.107229 -1.25668 149 73 28 1752393037
0.431141 -0.100265 -1.25341 149 73 28 1752393037
0.430022 -0.093338 -1.25015 149 73 28 1752393037
0.428909 -0.086447 -1.24692 149 73 28 1752393037
