ply
format ascii 1.0
comment PCL generated
obj_info is_cyberware_data 0
obj_info is_mesh 0
obj_info is_warped 0
obj_info is_interlaced 0
obj_info num_cols 30000
obj_info num_rows 1
obj_info echo_rgb_offset_x 0
obj_info echo_rgb_offset_y 0
obj_info echo_rgb_offset_z 0
obj_info echo_rgb_frontfocus 0.0
obj_info echo_rgb_backfocus 0.0
obj_info echo_rgb_pixelsize 0.0
obj_info echo_rgb_centerpixel 0
obj_info echo_frames 1
obj_info echo_lgincr 0.0
element vertex 984
property float x
property float y
property float z
property uchar red
property uchar green
property uchar blue
property uint label
end_header
-0.307493 0.502569 -2.47996 86 86 86 1752393037
-0.307503 0.515811 -2.48004 86 86 86 1752393037
-0.307513 0.529054 -2.48012 86 86 86 1752393037
-0.307523 0.542298 -2.4802 86 86 86 1752393037
-0.307532 0.555543 -2.48028 86 86 86 1752393037
-0.307542 0.568788 -2.48036 86 86 86 1752393037
-0.307552 0.582034 -2.48044 86 86 86 1752393037
-0.307562 0.595282 -2.48052 86 86 86 1752393037
-0.307572 0.60853 -2.4806 86 86 86 1752393037
-0.307582 0.621778 -2.48068 86 86 86 1752393037
-0.307592 0.635028 -2.48076 86 86 86 1752393037
-0.307602 0.648279 -2.48083 86 86 86 1752393037
-0.307611 0.66153 -2.48092 86 86 86 1752393037
-0.307621 0.674782 -2.48099 86 86 86 1752393037
-0.307631 0.688035 -2.48107 86 86 86 1752393037
-0.307641 0.70129 -2.48115 86 86 86 1752393037
-0.307651 0.714544 -2.48123 86 86 86 1752393037
-0.307661 0.7278 -2.48131 86 86 86 1752393037
-0.307671 0.741057 -2.48139 86 86 86 1752393037
-0.307681 0.754314 -2.48147 86 86 86 1752393037
-0.307691 0.767572 -2.48155 86 86 86 1752393037
-0.3077 0.780831 -2.48163 86 86 86 1752393037
-0.30771 0.79409 -2.48171 0 0 0 1752393037
-0.30772 0.80735 -2.48179 0 0 0 1752393037
-0.307729 0.820611 -2.48186 0 0 0 1752393037
-0.307739 0.833873 -2.48194 0 0 0 1752393037
-0.372557 1.02553 -3.0047 204 182 121 1752393037
-0.372557 1.04156 -3.0047 204 182 121 1752393037
-0.372557 1.05758 -3.0047 204 182 121 1752393037
-0.372557 1.0736 -3.0047 204 182 121 1752393037
-0.372557 1.08963 -3.0047 204 182 121 1752393037
-0.372557 1.10565 -3.0047 204 182 121 1752393037
-0.372557 1.12168 -3.0047 204 182 121 1752393037
-0.372557 1.1377 -3.0047 204 182 121 1752393037
-0.372557 1.15372 -3.0047 204 182 121 1752393037
-0.372557 1.16975 -3.0047 204 182 121 1752393037
-0.372557 1.18577 -3.0047 204 182 121 1752393037
-0.260469 -0.868228 -2.17073 86 86 86 1752393037
-0.26083 -0.85784 -2.17374 86 86 86 1752393037
-0.264403 -0.85784 -2.20351 86 86 86 1752393037
-0.268075 -0.85784 -2.23412 86 86 86 1752393037
-0.271851 -0.85784 -2.26558 86 86 86 1752393037
-0.275734 -0.85784 -2.29795 86 86 86 1752393037
-0.27973 -0.85784 -2.33125 86 86 86 1752393037
-0.283844 -0.85784 -2.36554 86 86 86 1752393037
-0.288081 -0.85784 -2.40084 86 86 86 1752393037
-0.288693 -0.846832 -2.40594 86 86 86 1752393037
-0.288693 -0.834001 -2.40594 86 86 86 1752393037
-0.288693 -0.82117 -2.40594 86 86 86 1752393037
-0.288693 -0.808339 -2.40594 86 86 86 1752393037
-0.288693 -0.795508 -2.40594 86 86 86 1752393037
-0.288693 -0.782678 -2.40594 86 86 86 1752393037
-0.288693 -0.769847 -2.40594 86 86 86 1752393037
-0.288693 -0.757016 -2.40594 86 86 86 1752393037
-0.288693 -0.744185 -2.40594 86 86 86 1752393037
-0.288693 -0.731355 -2.40594 86 86 86 1752393037
-0.288693 -0.718524 -2.40594 86 86 86 1752393037
-0.288693 -0.705693 -2.40594 86 86 86 1752393037
-0.288693 -0.692862 -2.40594 86 86 86 1752393037
-0.288693 -0.680032 -2.40594 86 86 86 1752393037
-0.288693 -0.667201 -2.40594 86 86 86 1752393037
-0.288693 -0.65437 -2.40594 86 86 86 1752393037
-0.288693 -0.641539 -2.40594 86 86 86 1752393037
-0.260469 -0.567243 -2.17073 86 86 86 1752393037
-0.260468 -0.555666 -2.17073 86 86 86 1752393037
-0.260468 -0.54409 -2.17073 86 86 86 1752393037
-0.260469 -0.532513 -2.17073 86 86 86 1752393037
-0.264856 -0.529712 -2.20729 86 86 86 1752393037
-0.270875 -0.529712 -2.25746 86 86 86 1752393037
-0.277175 -0.529712 -2.30996 86 86 86 1752393037
-0.283774 -0.529712 -2.36495 86 86 86 1752393037
-0.290696 -0.529712 -2.42264 86 86 86 1752393037
-0.297963 -0.529712 -2.4832 86 86 86 1752393037
-0.305603 -0.529712 -2.54688 86 86 86 1752393037
-0.313645 -0.529712 -2.6139 86 86 86 1752393037
-0.322122 -0.529712 -2.68454 86 86 86 1752393037
-0.362606 -0.58017 -3.02193 204 182 121 1752393037
-0.362606 -0.564054 -3.02193 204 182 121 1752393037
-0.362606 -0.547938 -3.02193 204 182 121 1752393037
-0.362606 -0.531823 -3.02193 204 182 121 1752393037
-0.362606 -0.515707 -3.02193 204 182 121 1752393037
-0.362606 -0.499591 -3.02193 204 182 121 1752393037
-0.362606 -0.483475 -3.02193 204 182 121 1752393037
-0.362606 -0.467359 -3.02193 204 182 121 1752393037
-0.362606 -0.451244 -3.02193 204 182 121 1752393037
-0.362606 -0.435128 -3.02193 204 182 121 1752393037
-0.362606 -0.419012 -3.02193 204 182 121 1752393037
-0.362606 -0.402896 -3.02193 204 182 121 1752393037
-0.362606 -0.38678 -3.02193 204 182 121 1752393037
-0.362606 -0.370664 -3.02193 204 182 121 1752393037
-0.362606 -0.354548 -3.02193 204 182 121 1752393037
-0.260469 -0.243104 -2.17073 86 86 86 1752393037
-0.260469 -0.231528 -2.17073 86 86 86 1752393037
-0.260469 -0.219951 -2.17073 86 86 86 1752393037
-0.260469 -0.208375 -2.17073 86 86 86 1752393037
-0.260469 -0.196798 -2.17073 86 86 86 1752393037
-0.275849 -0.196159 -2.2989 86 86 86 1752393037
-0.294239 -0.196159 -2.45216 86 86 86 1752393037
-0.315256 -0.196159 -2.62732 86 86 86 1752393037
-0.362606 -0.209506 -3.02194 204 182 121 1752393037
-0.362606 -0.19339 -3.02193 204 182 121 1752393037
-0.295697 -0.144563 -2.46432 0 0 0 1752393037
-0.295707 -0.131425 -2.4644 0 0 0 1752393037
-0.298051 -0.119221 -2.48394 0 0 0 1752393037
-0.298061 -0.105977 -2.48402 0 0 0 1752393037
-0.298071 -0.092733 -2.4841 0 0 0 1752393037
-0.298081 -0.079488 -2.48418 0 0 0 1752393037
-0.29809 -0.066242 -2.48426 86 86 86 1752393037
-0.2981 -0.052995 -2.48434 86 86 86 1752393037
-0.298109 -0.039748 -2.48442 86 86 86 1752393037
-0.298119 -0.026499 -2.4845 86 86 86 1752393037
-0.298128 -0.01325 -2.48458 86 86 86 1752393037
-0.298138 0 -2.48466 86 86 86 1752393037
-0.298148 0.013251 -2.48474 86 86 86 1752393037
-0.298157 0.026503 -2.48482 86 86 86 1752393037
-0.298167 0.039756 -2.4849 86 86 86 1752393037
-0.298176 0.053009 -2.48498 86 86 86 1752393037
-0.298186 0.066264 -2.48506 86 86 86 1752393037
-0.298195 0.079519 -2.48514 86 86 86 1752393037
-0.298205 0.092775 -2.48522 86 86 86 1752393037
-0.298215 0.106032 -2.4853 86 86 86 1752393037
-0.298224 0.11929 -2.48538 86 86 86 1752393037
-0.298234 0.132548 -2.48546 86 86 86 1752393037
-0.298243 0.145808 -2.48554 86 86 86 1752393037
-0.298253 0.159068 -2.48562 86 86 86 1752393037
-0.298263 0.17233 -2.4857 86 86 86 1752393037
-0.298272 0.185592 -2.48578 86 86 86 1752393037
-0.298282 0.198855 -2.48586 86 86 86 1752393037
-0.298291 0.212118 -2.48594 86 86 86 1752393037
-0.298301 0.225383 -2.48602 86 86 86 1752393037
-0.298311 0.238649 -2.4861 86 86 86 1752393037
-0.29832 0.251915 -2.48618 86 86 86 1752393037
-0.29833 0.265182 -2.48626 86 86 86 1752393037
-0.29834 0.27845 -2.48634 86 86 86 1752393037
-0.298349 0.291719 -2.48642 86 86 86 1752393037
-0.298359 0.304989 -2.4865 86 86 86 1752393037
-0.298368 0.31826 -2.48658 86 86 86 1752393037
-0.298378 0.331531 -2.48666 86 86 86 1752393037
-0.298388 0.344803 -2.48674 86 86 86 1752393037
-0.298397 0.358077 -2.48682 86 86 86 1752393037
-0.298407 0.371351 -2.4869 86 86 86 1752393037
-0.298416 0.384626 -2.48698 86 86 86 1752393037
-0.298426 0.397901 -2.48706 86 86 86 1752393037
-0.298436 0.411178 -2.48714 86 86 86 1752393037
-0.298445 0.424455 -2.48722 86 86 86 1752393037
-0.298455 0.437734 -2.4873 86 86 86 1752393037
-0.298464 0.451013 -2.48738 86 86 86 1752393037
-0.298474 0.464293 -2.48746 86 86 86 1752393037
-0.298484 0.477574 -2.48754 86 86 86 1752393037
-0.298493 0.490856 -2.48762 86 86 86 1752393037
-0.298503 0.504138 -2.4877 86 86 86 1752393037
-0.298512 0.517422 -2.48778 86 86 86 1752393037
-0.298522 0.530706 -2.48786 86 86 86 1752393037
-0.298532 0.543991 -2.48794 86 86 86 1752393037
-0.298541 0.557277 -2.48802 86 86 86 1752393037
-0.298551 0.570564 -2.4881 86 86 86 1752393037
-0.298561 0.583852 -2.48818 86 86 86 1752393037
-0.29857 0.59714 -2.48826 86 86 86 1752393037
-0.29858 0.61043 -2.48834 86 86 86 1752393037
-0.298589 0.62372 -2.48842 86 86 86 1752393037
-0.298599 0.637011 -2.4885 86 86 86 1752393037
-0.298609 0.650303 -2.48858 86 86 86 1752393037
-0.298618 0.663596 -2.48866 86 86 86 1752393037
-0.298628 0.67689 -2.48874 86 86 86 1752393037
-0.298638 0.690185 -2.48882 86 86 86 1752393037
-0.298647 0.70348 -2.4889 86 86 86 1752393037
-0.298657 0.716776 -2.48898 86 86 86 1752393037
-0.298666 0.730074 -2.48906 86 86 86 1752393037
-0.298676 0.743372 -2.48915 86 86 86 1752393037
-0.298686 0.75667 -2.48922 86 86 86 1752393037
-0.298695 0.76997 -2.48931 86 86 86 1752393037
-0.298705 0.783271 -2.48939 86 86 86 1752393037
-0.298714 0.796571 -2.48946 0 0 0 1752393037
-0.298724 0.809873 -2.48954 0 0 0 1752393037
-0.298733 0.823175 -2.48962 0 0 0 1752393037
-0.298742 0.836479 -2.4897 0 0 0 1752393037
-0.362607 1.03141 -3.02194 204 182 121 1752393037
-0.362607 1.04753 -3.02194 204 182 121 1752393037
-0.362607 1.06365 -3.02194 204 182 121 1752393037
-0.362607 1.07976 -3.02194 204 182 121 1752393037
-0.362607 1.09588 -3.02194 204 182 121 1752393037
-0.362607 1.11199 -3.02194 204 182 121 1752393037
-0.362607 1.12811 -3.02194 204 182 121 1752393037
-0.362607 1.14423 -3.02194 204 182 121 1752393037
-0.362607 1.16034 -3.02194 204 182 121 1752393037
-0.362607 1.17646 -3.02194 204 182 121 1752393037
-0.362607 1.19257 -3.02194 204 182 121 1752393037
-0.252809 -0.871755 -2.17954 86 86 86 1752393037
-0.252809 -0.860132 -2.17954 86 86 86 1752393037
-0.255589 -0.85784 -2.20351 86 86 86 1752393037
-0.259139 -0.85784 -2.23412 86 86 86 1752393037
-0.262789 -0.85784 -2.26558 86 86 86 1752393037
-0.266543 -0.85784 -2.29795 86 86 86 1752393037
-0.270406 -0.85784 -2.33125 86 86 86 1752393037
-0.274383 -0.85784 -2.36554 86 86 86 1752393037
-0.277991 -0.856341 -2.39665 86 86 86 1752393037
-0.277991 -0.84356 -2.39665 86 86 86 1752393037
-0.277991 -0.830779 -2.39665 86 86 86 1752393037
-0.277991 -0.817997 -2.39665 86 86 86 1752393037
-0.277991 -0.805216 -2.39665 86 86 86 1752393037
-0.277991 -0.792435 -2.39665 86 86 86 1752393037
-0.277991 -0.779654 -2.39665 86 86 86 1752393037
-0.277991 -0.766872 -2.39665 86 86 86 1752393037
-0.277991 -0.754091 -2.39665 86 86 86 1752393037
-0.277991 -0.74131 -2.39665 86 86 86 1752393037
-0.277991 -0.728529 -2.39665 86 86 86 1752393037
-0.277991 -0.715748 -2.39665 86 86 86 1752393037
-0.277991 -0.702966 -2.39665 86 86 86 1752393037
-0.277991 -0.690185 -2.39665 86 86 86 1752393037
-0.277991 -0.677404 -2.39665 86 86 86 1752393037
-0.277991 -0.664623 -2.39665 86 86 86 1752393037
-0.277991 -0.651842 -2.39665 86 86 86 1752393037
-0.277991 -0.63906 -2.39665 86 86 86 1752393037
-0.252809 -0.569547 -2.17954 86 86 86 1752393037
-0.252809 -0.557923 -2.17954 86 86 86 1752393037
-0.252809 -0.5463 -2.17954 86 86 86 1752393037
-0.252809 -0.534676 -2.17954 86 86 86 1752393037
-0.256028 -0.529712 -2.20729 86 86 86 1752393037
-0.261846 -0.529712 -2.25746 86 86 86 1752393037
-0.267936 -0.529712 -2.30996 86 86 86 1752393037
-0.274315 -0.529712 -2.36495 86 86 86 1752393037
-0.281006 -0.529712 -2.42264 86 86 86 1752393037
-0.288031 -0.529712 -2.4832 86 86 86 1752393037
-0.295416 -0.529712 -2.54688 86 86 86 1752393037
-0.303191 -0.529712 -2.6139 86 86 86 1752393037
-0.311385 -0.529712 -2.68454 86 86 86 1752393037
-0.320034 -0.529712 -2.75911 86 86 86 1752393037
-0.352542 -0.567308 -3.03937 204 182 121 1752393037
-0.352542 -0.551099 -3.03937 204 182 121 1752393037
-0.352542 -0.534891 -3.03937 204 182 121 1752393037
-0.352542 -0.518682 -3.03937 204 182 121 1752393037
-0.352542 -0.502473 -3.03937 204 182 121 1752393037
-0.352542 -0.486264 -3.03937 204 182 121 1752393037
-0.352542 -0.470055 -3.03937 204 182 121 1752393037
-0.352542 -0.453847 -3.03937 204 182 121 1752393037
-0.352542 -0.437638 -3.03937 204 182 121 1752393037
-0.352542 -0.421429 -3.03937 204 182 121 1752393037
-0.352542 -0.40522 -3.03937 204 182 121 1752393037
-0.352542 -0.389011 -3.03937 204 182 121 1752393037
-0.352542 -0.372803 -3.03937 204 182 121 1752393037
-0.352542 -0.356594 -3.03937 204 182 121 1752393037
-0.352542 -0.340385 -3.03937 204 182 121 1752393037
-0.252809 -0.232468 -2.17954 86 86 86 1752393037
-0.252809 -0.220845 -2.17954 86 86 86 1752393037
-0.252809 -0.209221 -2.17954 86 86 86 1752393037
-0.252809 -0.197598 -2.17954 86 86 86 1752393037
-0.266654 -0.196159 -2.2989 86 86 86 1752393037
-0.284431 -0.196159 -2.45216 86 86 86 1752393037
-0.304747 -0.196159 -2.62732 86 86 86 1752393037
-0.352542 -0.210715 -3.03937 204 182 121 1752393037
-0.352542 -0.194506 -3.03937 204 182 121 1752393037
-0.286734 -0.145015 -2.47202 0 0 0 1752393037
-0.286744 -0.131836 -2.47211 0 0 0 1752393037
-0.289017 -0.119593 -2.49171 0 0 0 1752393037
-0.289027 -0.106309 -2.49179 0 0 0 1752393037
-0.289036 -0.093023 -2.49187 0 0 0 1752393037
-0.289046 -0.079737 -2.49195 0 0 0 1752393037
-0.289055 -0.066449 -2.49203 86 86 86 1752393037
-0.289064 -0.053161 -2.49211 86 86 86 1752393037
-0.289073 -0.039872 -2.49219 86 86 86 1752393037
-0.289083 -0.026582 -2.49227 86 86 86 1752393037
-0.289092 -0.013292 -2.49235 86 86 86 1752393037
-0.289102 0 -2.49243 86 86 86 1752393037
-0.289111 0.013292 -2.49251 86 86 86 1752393037
-0.28912 0.026586 -2.49259 86 86 86 1752393037
-0.289129 0.03988 -2.49267 86 86 86 1752393037
-0.289139 0.053175 -2.49275 86 86 86 1752393037
-0.289148 0.066471 -2.49284 86 86 86 1752393037
-0.289158 0.079768 -2.49291 86 86 86 1752393037
-0.289167 0.093065 -2.493 86 86 86 1752393037
-0.289176 0.106364 -2.49308 86 86 86 1752393037
-0.289185 0.119663 -2.49316 86 86 86 1752393037
-0.289195 0.132963 -2.49324 86 86 86 1752393037
-0.289204 0.146264 -2.49332 86 86 86 1752393037
-0.289214 0.159566 -2.4934 86 86 86 1752393037
-0.289223 0.172869 -2.49348 86 86 86 1752393037
-0.289232 0.186172 -2.49356 86 86 86 1752393037
-0.289242 0.199477 -2.49364 86 86 86 1752393037
-0.289251 0.212782 -2.49372 86 86 86 1752393037
-0.28926 0.226088 -2.4938 86 86 86 1752393037
-0.28927 0.239395 -2.49388 86 86 86 1752393037
-0.289279 0.252703 -2.49396 86 86 86 1752393037
-0.289288 0.266012 -2.49404 86 86 86 1752393037
-0.289298 0.279322 -2.49412 86 86 86 1752393037
-0.289307 0.292632 -2.4942 86 86 86 1752393037
-0.289316 0.305944 -2.49428 86 86 86 1752393037
-0.289326 0.319256 -2.49436 86 86 86 1752393037
-0.289335 0.332569 -2.49445 86 86 86 1752393037
-0.289344 0.345883 -2.49452 86 86 86 1752393037
-0.289354 0.359198 -2.49461 86 86 86 1752393037
-0.289363 0.372513 -2.49469 86 86 86 1752393037
-0.289372 0.38583 -2.49477 86 86 86 1752393037
-0.289382 0.399147 -2.49485 86 86 86 1752393037
-0.289391 0.412465 -2.49493 86 86 86 1752393037
-0.2894 0.425784 -2.49501 86 86 86 1752393037
-0.28941 0.439104 -2.49509 86 86 86 1752393037
-0.289419 0.452425 -2.49517 86 86 86 1752393037
-0.289428 0.465747 -2.49525 86 86 86 1752393037
-0.289438 0.479069 -2.49533 86 86 86 1752393037
-0.289447 0.492393 -2.49541 86 86 86 1752393037
-0.289457 0.505717 -2.49549 86 86 86 1752393037
-0.289466 0.519042 -2.49557 86 86 86 1752393037
-0.289475 0.532368 -2.49565 86 86 86 1752393037
-0.289485 0.545695 -2.49573 86 86 86 1752393037
-0.289494 0.559023 -2.49582 86 86 86 1752393037
-0.289503 0.572351 -2.4959 86 86 86 1752393037
-0.289513 0.585681 -2.49598 86 86 86 1752393037
-0.289522 0.599011 -2.49606 86 86 86 1752393037
-0.289531 0.612342 -2.49614 86 86 86 1752393037
-0.289541 0.625674 -2.49622 86 86 86 1752393037
-0.28955 0.639007 -2.4963 86 86 86 1752393037
-0.289559 0.652341 -2.49638 86 86 86 1752393037
-0.289569 0.665675 -2.49646 86 86 86 1752393037
-0.289578 0.679011 -2.49654 86 86 86 1752393037
-0.289587 0.692347 -2.49662 86 86 86 1752393037
-0.289597 0.705684 -2.4967 86 86 86 1752393037
-0.289606 0.719022 -2.49678 86 86 86 1752393037
-0.289616 0.732361 -2.49686 86 86 86 1752393037
-0.289625 0.745701 -2.49694 86 86 86 1752393037
-0.289634 0.759042 -2.49703 86 86 86 1752393037
-0.289644 0.772383 -2.49711 86 86 86 1752393037
-0.289653 0.785725 -2.49719 0 0 0 1752393037
-0.289662 0.799068 -2.49727 0 0 0 1752393037
-0.289671 0.812411 -2.49734 0 0 0 1752393037
-0.28968 0.825755 -2.49742 0 0 0 1752393037
-0.352542 1.02115 -3.03937 204 182 121 1752393037
-0.352542 1.03736 -3.03937 204 182 121 1752393037
-0.352542 1.05357 -3.03937 204 182 121 1752393037
-0.352542 1.06978 -3.03937 204 182 121 1752393037
-0.352542 1.08599 -3.03937 204 182 121 1752393037
-0.352542 1.1022 -3.03937 204 182 121 1752393037
-0.352542 1.11841 -3.03937 204 182 121 1752393037
-0.352542 1.13462 -3.03937 204 182 121 1752393037
-0.352542 1.15083 -3.03937 204 182 121 1752393037
-0.352542 1.16703 -3.03937 204 182 121 1752393037
-0.352542 1.18324 -3.03937 204 182 121 1752393037
-0.352542 1.19945 -3.03937 204 182 121 1752393037
-0.245087 -0.87531 -2.18843 86 86 86 1752393037
-0.245087 -0.86364 -2.18843 86 86 86 1752393037
-0.246776 -0.85784 -2.20351 86 86 86 1752393037
-0.250203 -0.85784 -2.23412 86 86 86 1752393037
-0.253727 -0.85784 -2.26558 86 86 86 1752393037
-0.257352 -0.85784 -2.29795 86 86 86 1752393037
-0.261082 -0.85784 -2.33125 86 86 86 1752393037
-0.264921 -0.85784 -2.36554 86 86 86 1752393037
-0.267372 -0.853045 -2.38742 86 86 86 1752393037
-0.267372 -0.840313 -2.38742 86 86 86 1752393037
-0.267372 -0.827581 -2.38742 86 86 86 1752393037
-0.267372 -0.814849 -2.38742 86 86 86 1752393037
-0.267372 -0.802117 -2.38742 86 86 86 1752393037
-0.267372 -0.789385 -2.38742 86 86 86 1752393037
-0.267372 -0.776653 -2.38742 86 86 86 1752393037
-0.267372 -0.763921 -2.38742 86 86 86 1752393037
-0.267372 -0.751189 -2.38742 86 86 86 1752393037
-0.267372 -0.738457 -2.38742 86 86 86 1752393037
-0.267372 -0.725725 -2.38742 86 86 86 1752393037
-0.267372 -0.712993 -2.38742 86 86 86 1752393037
-0.267372 -0.700261 -2.38742 86 86 86 1752393037
-0.267372 -0.687529 -2.38742 86 86 86 1752393037
-0.267372 -0.674797 -2.38742 86 86 86 1752393037
-0.267372 -0.662065 -2.38742 86 86 86 1752393037
-0.267372 -0.649333 -2.38742 86 86 86 1752393037
-0.267372 -0.636601 -2.38742 86 86 86 1752393037
-0.245087 -0.57187 -2.18843 86 86 86 1752393037
-0.245087 -0.560199 -2.18843 86 86 86 1752393037
-0.245087 -0.548528 -2.18843 86 86 86 1752393037
-0.245087 -0.536857 -2.18843 86 86 86 1752393037
-0.247199 -0.529712 -2.20729 86 86 86 1752393037
-0.252817 -0.529712 -2.25746 86 86 86 1752393037
-0.258697 -0.529712 -2.30996 86 86 86 1752393037
-0.264856 -0.529712 -2.36495 86 86 86 1752393037
-0.271316 -0.529712 -2.42264 86 86 86 1752393037
-0.278099 -0.529712 -2.4832 86 86 86 1752393037
-0.28523 -0.529712 -2.54688 86 86 86 1752393037
-0.292736 -0.529712 -2.6139 86 86 86 1752393037
-0.300647 -0.529712 -2.68454 86 86 86 1752393037
-0.308999 -0.529712 -2.75911 86 86 86 1752393037
-0.34236 -0.5706 -3.057 204 182 121 1752393037
-0.34236 -0.554297 -3.057 204 182 121 1752393037
-0.34236 -0.537994 -3.057 204 182 121 1752393037
-0.34236 -0.521691 -3.057 204 182 121 1752393037
-0.34236 -0.505389 -3.057 204 182 121 1752393037
-0.34236 -0.489086 -3.057 204 182 121 1752393037
-0.34236 -0.472783 -3.057 204 182 121 1752393037
-0.34236 -0.45648 -3.057 204 182 121 1752393037
-0.34236 -0.440177 -3.057 204 182 121 1752393037
-0.34236 -0.423874 -3.057 204 182 121 1752393037
-0.34236 -0.407571 -3.057 204 182 121 1752393037
-0.34236 -0.391268 -3.057 204 182 121 1752393037
-0.34236 -0.374966 -3.057 204 182 121 1752393037
-0.34236 -0.358663 -3.057 204 182 121 1752393037
-0.34236 -0.34236 -3.057 204 182 121 1752393037
-0.245087 -0.233416 -2.18843 86 86 86 1752393037
-0.245087 -0.221745 -2.18843 86 86 86 1752393037
-0.245087 -0.210075 -2.18843 86 86 86 1752393037
-0.245087 -0.198404 -2.18843 86 86 86 1752393037
-0.257459 -0.196159 -2.2989 86 86 86 1752393037
-0.274623 -0.196159 -2.45216 86 86 86 1752393037
-0.294239 -0.196159 -2.62732 86 86 86 1752393037
-0.34236 -0.211937 -3.057 204 182 121 1752393037
-0.34236 -0.195634 -3.057 204 182 121 1752393037
-0.277715 -0.14547 -2.47977 0 0 0 1752393037
-0.277724 -0.13225 -2.47986 0 0 0 1752393037
-0.279927 -0.119969 -2.49952 0 0 0 1752393037
-0.279936 -0.106642 -2.4996 0 0 0 1752393037
-0.279945 -0.093315 -2.49969 0 0 0 1752393037
-0.279954 -0.079987 -2.49977 0 0 0 1752393037
-0.279963 -0.066658 -2.49985 86 86 86 1752393037
-0.279972 -0.053328 -2.49993 86 86 86 1752393037
-0.279981 -0.039997 -2.50001 86 86 86 1752393037
-0.27999 -0.026666 -2.50009 86 86 86 1752393037
-0.279999 -0.013333 -2.50017 86 86 86 1752393037
-0.280008 0 -2.50025 86 86 86 1752393037
-0.280017 0.013334 -2.50033 86 86 86 1752393037
-0.280027 0.026669 -2.50042 86 86 86 1752393037
-0.280036 0.040005 -2.5005 86 86 86 1752393037
-0.280045 0.053342 -2.50058 86 86 86 1752393037
-0.280054 0.066679 -2.50066 86 86 86 1752393037
-0.280063 0.080018 -2.50074 86 86 86 1752393037
-0.280072 0.093357 -2.50082 86 86 86 1752393037
-0.280081 0.106697 -2.5009 86 86 86 1752393037
-0.28009 0.120039 -2.50098 86 86 86 1752393037
-0.280099 0.13338 -2.50106 86 86 86 1752393037
-0.280108 0.146723 -2.50114 86 86 86 1752393037
-0.280117 0.160067 -2.50122 86 86 86 1752393037
-0.280126 0.173411 -2.50131 86 86 86 1752393037
-0.280135 0.186757 -2.50139 86 86 86 1752393037
-0.280144 0.200103 -2.50147 86 86 86 1752393037
-0.280153 0.21345 -2.50155 86 86 86 1752393037
-0.280163 0.226798 -2.50163 86 86 86 1752393037
-0.280172 0.240147 -2.50171 86 86 86 1752393037
-0.280181 0.253497 -2.50179 86 86 86 1752393037
-0.28019 0.266847 -2.50187 86 86 86 1752393037
-0.280199 0.280199 -2.50195 86 86 86 1752393037
-0.280208 0.293551 -2.50203 86 86 86 1752393037
-0.280217 0.306904 -2.50212 86 86 86 1752393037
-0.280226 0.320258 -2.5022 86 86 86 1752393037
-0.280235 0.333613 -2.50228 86 86 86 1752393037
-0.280244 0.346969 -2.50236 86 86 86 1752393037
-0.280253 0.360326 -2.50244 86 86 86 1752393037
-0.280262 0.373683 -2.50252 86 86 86 1752393037
-0.280272 0.387042 -2.5026 86 86 86 1752393037
-0.280281 0.400401 -2.50268 86 86 86 1752393037
-0.28029 0.413761 -2.50276 86 86 86 1752393037
-0.280299 0.427122 -2.50285 86 86 86 1752393037
-0.280308 0.440484 -2.50293 86 86 86 1752393037
-0.280317 0.453846 -2.50301 86 86 86 1752393037
-0.280326 0.46721 -2.50309 86 86 86 1752393037
-0.280335 0.480574 -2.50317 86 86 86 1752393037
-0.280344 0.49394 -2.50325 86 86 86 1752393037
-0.280353 0.507306 -2.50333 86 86 86 1752393037
-0.280362 0.520673 -2.50341 86 86 86 1752393037
-0.280371 0.534041 -2.50349 86 86 86 1752393037
-0.280381 0.54741 -2.50358 86 86 86 1752393037
-0.28039 0.560779 -2.50366 86 86 86 1752393037
-0.280399 0.57415 -2.50374 86 86 86 1752393037
-0.280408 0.587521 -2.50382 86 86 86 1752393037
-0.280417 0.600893 -2.5039 86 86 86 1752393037
-0.280426 0.614267 -2.50398 86 86 86 1752393037
-0.280435 0.62764 -2.50406 86 86 86 1752393037
-0.280444 0.641015 -2.50414 86 86 86 1752393037
-0.280453 0.654391 -2.50423 86 86 86 1752393037
-0.280462 0.667768 -2.50431 86 86 86 1752393037
-0.280471 0.681145 -2.50439 86 86 86 1752393037
-0.280481 0.694523 -2.50447 86 86 86 1752393037
-0.28049 0.707903 -2.50455 86 86 86 1752393037
-0.280499 0.721282 -2.50463 86 86 86 1752393037
-0.280508 0.734663 -2.50471 86 86 86 1752393037
-0.280517 0.748045 -2.50479 86 86 86 1752393037
-0.280526 0.761428 -2.50487 86 86 86 1752393037
-0.280535 0.774811 -2.50496 86 86 86 1752393037
-0.280544 0.788195 -2.50504 0 0 0 1752393037
-0.280553 0.80158 -2.50512 0 0 0 1752393037
-0.280562 0.814965 -2.50519 0 0 0 1752393037
-0.280571 0.828351 -2.50527 0 0 0 1752393037
-0.34236 1.02708 -3.057 204 182 121 1752393037
-0.34236 1.04338 -3.057 204 182 121 1752393037
-0.34236 1.05969 -3.057 204 182 121 1752393037
-0.34236 1.07599 -3.057 204 182 121 1752393037
-0.34236 1.09229 -3.057 204 182 121 1752393037
-0.34236 1.1086 -3.057 204 182 121 1752393037
-0.34236 1.1249 -3.057 204 182 121 1752393037
-0.34236 1.1412 -3.057 204 182 121 1752393037
-0.34236 1.1575 -3.057 204 182 121 1752393037
-0.34236 1.17381 -3.057 204 182 121 1752393037
-0.34236 1.19011 -3.057 204 182 121 1752393037
-0.34236 1.20641 -3.057 204 182 121 1752393037
-0.237302 -0.878895 -2.19739 86 86 86 1752393037
-0.237302 -0.867177 -2.1974 86 86 86 1752393037
-0.237962 -0.85784 -2.20351 86 86 86 1752393037
-0.241267 -0.85784 -2.23412 86 86 86 1752393037
-0.244666 -0.85784 -2.26558 86 86 86 1752393037
-0.248161 -0.85784 -2.29795 86 86 86 1752393037
-0.251757 -0.85784 -2.33125 86 86 86 1752393037
-0.25546 -0.85784 -2.36554 86 86 86 1752393037
-0.256835 -0.849774 -2.37827 86 86 86 1752393037
-0.256835 -0.837091 -2.37827 86 86 86 1752393037
-0.256835 -0.824408 -2.37827 86 86 86 1752393037
-0.256835 -0.811725 -2.37827 86 86 86 1752393037
-0.256835 -0.799042 -2.37827 86 86 86 1752393037
-0.256835 -0.786358 -2.37827 86 86 86 1752393037
-0.256835 -0.773675 -2.37827 86 86 86 1752393037
-0.256835 -0.760992 -2.37827 86 86 86 1752393037
-0.256835 -0.748309 -2.37827 86 86 86 1752393037
-0.256835 -0.735626 -2.37827 86 86 86 1752393037
-0.256835 -0.722942 -2.37827 86 86 86 1752393037
-0.256835 -0.710259 -2.37827 86 86 86 1752393037
-0.256835 -0.697576 -2.37827 86 86 86 1752393037
-0.256835 -0.684893 -2.37827 86 86 86 1752393037
-0.256835 -0.67221 -2.37827 86 86 86 1752393037
-0.256835 -0.659526 -2.37827 86 86 86 1752393037
-0.256835 -0.646843 -2.37827 86 86 86 1752393037
-0.256835 -0.63416 -2.37827 86 86 86 1752393037
-0.237302 -0.574211 -2.1974 86 86 86 1752393037
-0.237302 -0.562493 -2.1974 86 86 86 1752393037
-0.237302 -0.550774 -2.1974 86 86 86 1752393037
-0.237302 -0.539056 -2.1974 86 86 86 1752393037
-0.23837 -0.529712 -2.20729 86 86 86 1752393037
-0.243788 -0.529712 -2.25746 86 86 86 1752393037
-0.249457 -0.529712 -2.30996 86 86 86 1752393037
-0.255397 -0.529712 -2.36495 86 86 86 1752393037
-0.261626 -0.529712 -2.42264 86 86 86 1752393037
-0.268167 -0.529712 -2.4832 86 86 86 1752393037
-0.275043 -0.529712 -2.54688 86 86 86 1752393037
-0.282281 -0.529712 -2.6139 86 86 86 1752393037
-0.28991 -0.529712 -2.68454 86 86 86 1752393037
-0.297963 -0.529712 -2.75911 86 86 86 1752393037
-0.299879 -0.518309 -2.77685 86 86 86 1752393037
-0.299879 -0.5035 -2.77685 86 86 86 1752393037
-0.299879 -0.488692 -2.77685 86 86 86 1752393037
-0.299879 -0.473883 -2.77685 86 86 86 1752393037
-0.299879 -0.459074 -2.77685 86 86 86 1752393037
-0.299879 -0.444265 -2.77685 86 86 86 1752393037
-0.299879 -0.429456 -2.77685 86 86 86 1752393037
-0.299879 -0.414647 -2.77685 86 86 86 1752393037
-0.299879 -0.399839 -2.77685 86 86 86 1752393037
-0.299879 -0.38503 -2.77685 86 86 86 1752393037
-0.299879 -0.370221 -2.77685 86 86 86 1752393037
-0.299879 -0.355412 -2.77685 86 86 86 1752393037
-0.299879 -0.340603 -2.77685 86 86 86 1752393037
-0.299879 -0.325794 -2.77685 86 86 86 1752393037
-0.299879 -0.310986 -2.77685 86 86 86 1752393037
-0.237302 -0.234372 -2.1974 86 86 86 1752393037
-0.237302 -0.222654 -2.1974 86 86 86 1752393037
-0.237302 -0.210935 -2.1974 86 86 86 1752393037
-0.237302 -0.199216 -2.1974 86 86 86 1752393037
-0.248264 -0.196159 -2.2989 86 86 86 1752393037
-0.264815 -0.196159 -2.45216 86 86 86 1752393037
-0.28373 -0.196159 -2.62732 86 86 86 1752393037
-0.332059 -0.213174 -3.07484 204 182 121 1752393037
-0.332059 -0.196776 -3.07484 204 182 121 1752393037
-0.268639 -0.145927 -2.48758 0 0 0 1752393037
-0.268648 -0.132666 -2.48766 0 0 0 1752393037
-0.270779 -0.120346 -2.50739 0 0 0 1752393037
-0.270787 -0.106978 -2.50747 0 0 0 1752393037
-0.270796 -0.093609 -2.50755 0 0 0 1752393037
-0.270805 -0.080239 -2.50764 0 0 0 1752393037
-0.270814 -0.066868 -2.50772 86 86 86 1752393037
-0.270823 -0.053496 -2.5078 86 86 86 1752393037
-0.270832 -0.040123 -2.50788 86 86 86 1752393037
-0.27084 -0.02675 -2.50796 86 86 86 1752393037
-0.270849 -0.013375 -2.50804 86 86 86 1752393037
-0.270858 0 -2.50812 86 86 86 1752393037
-0.270867 0.013376 -2.5082 86 86 86 1752393037
-0.270876 0.026753 -2.50829 86 86 86 1752393037
-0.270884 0.040131 -2.50837 86 86 86 1752393037
-0.270893 0.05351 -2.50845 86 86 86 1752393037
-0.270902 0.066889 -2.50853 86 86 86 1752393037
-0.270911 0.08027 -2.50861 86 86 86 1752393037
-0.27092 0.093651 -2.50869 86 86 86 1752393037
-0.270928 0.107033 -2.50877 86 86 86 1752393037
-0.270937 0.120417 -2.50886 86 86 86 1752393037
-0.270946 0.1338 -2.50894 86 86 86 1752393037
-0.270955 0.147185 -2.50902 86 86 86 1752393037
-0.270964 0.160571 -2.5091 86 86 86 1752393037
-0.270972 0.173958 -2.50918 86 86 86 1752393037
-0.270981 0.187345 -2.50926 86 86 86 1752393037
-0.27099 0.200733 -2.50935 86 86 86 1752393037
-0.270999 0.214122 -2.50943 86 86 86 1752393037
-0.271008 0.227513 -2.50951 86 86 86 1752393037
-0.271016 0.240903 -2.50959 86 86 86 1752393037
-0.271025 0.254295 -2.50967 86 86 86 1752393037
-0.271034 0.267688 -2.50975 86 86 86 1752393037
-0.271043 0.281081 -2.50984 86 86 86 1752393037
-0.271052 0.294476 -2.50992 86 86 86 1752393037
-0.27106 0.307871 -2.51 86 86 86 1752393037
-0.271069 0.321267 -2.51008 86 86 86 1752393037
-0.271078 0.334664 -2.51016 86 86 86 1752393037
-0.271087 0.348062 -2.51024 86 86 86 1752393037
-0.271096 0.361461 -2.51032 86 86 86 1752393037
-0.271105 0.374861 -2.51041 86 86 86 1752393037
-0.271113 0.388261 -2.51049 86 86 86 1752393037
-0.271122 0.401662 -2.51057 86 86 86 1752393037
-0.271131 0.415065 -2.51065 86 86 86 1752393037
-0.27114 0.428468 -2.51073 86 86 86 1752393037
-0.271149 0.441872 -2.51081 86 86 86 1752393037
-0.271157 0.455277 -2.5109 86 86 86 1752393037
-0.271166 0.468682 -2.51098 86 86 86 1752393037
-0.271175 0.482089 -2.51106 86 86 86 1752393037
-0.271184 0.495496 -2.51114 86 86 86 1752393037
-0.271193 0.508905 -2.51122 86 86 86 1752393037
-0.271201 0.522314 -2.5113 86 86 86 1752393037
-0.27121 0.535724 -2.51139 86 86 86 1752393037
-0.271219 0.549135 -2.51147 86 86 86 1752393037
-0.271228 0.562547 -2.51155 86 86 86 1752393037
-0.271237 0.57596 -2.51163 86 86 86 1752393037
-0.271246 0.589373 -2.51171 86 86 86 1752393037
-0.271254 0.602787 -2.51179 86 86 86 1752393037
-0.271263 0.616203 -2.51188 86 86 86 1752393037
-0.271272 0.629619 -2.51196 86 86 86 1752393037
-0.271281 0.643036 -2.51204 86 86 86 1752393037
-0.27129 0.656454 -2.51212 86 86 86 1752393037
-0.271299 0.669873 -2.5122 86 86 86 1752393037
-0.271307 0.683293 -2.51228 86 86 86 1752393037
-0.271316 0.696713 -2.51237 86 86 86 1752393037
-0.271325 0.710135 -2.51245 86 86 86 1752393037
-0.271334 0.723557 -2.51253 86 86 86 1752393037
-0.271343 0.73698 -2.51261 86 86 86 1752393037
-0.271351 0.750404 -2.51269 86 86 86 1752393037
-0.27136 0.763829 -2.51277 86 86 86 1752393037
-0.271369 0.777255 -2.51286 86 86 86 1752393037
-0.271378 0.790681 -2.51294 0 0 0 1752393037
-0.271386 0.804108 -2.51302 0 0 0 1752393037
-0.271395 0.817535 -2.51309 0 0 0 1752393037
-0.271404 0.830964 -2.51318 0 0 0 1752393037
-0.33206 1.03307 -3.07485 204 182 121 1752393037
-0.33206 1.04947 -3.07485 204 182 121 1752393037
-0.33206 1.06587 -3.07485 204 182 121 1752393037
-0.33206 1.08227 -3.07485 204 182 121 1752393037
-0.33206 1.09867 -3.07485 204 182 121 1752393037
-0.33206 1.11506 -3.07485 204 182 121 1752393037
-0.33206 1.13146 -3.07485 204 182 121 1752393037
-0.33206 1.14786 -3.07485 204 182 121 1752393037
-0.33206 1.16426 -3.07485 204 182 121 1752393037
-0.33206 1.18066 -3.07485 204 182 121 1752393037
-0.33206 1.19705 -3.07485 204 182 121 1752393037
-0.33206 1.21345 -3.07485 204 182 121 1752393037
-0.229452 -0.882509 -2.20643 86 86 86 1752393037
-0.229452 -0.870742 -2.20643 86 86 86 1752393037
-0.229452 -0.858976 -2.20643 86 86 86 1752393037
-0.232332 -0.85784 -2.23412 86 86 86 1752393037
-0.235604 -0.85784 -2.26558 86 86 86 1752393037
-0.23897 -0.85784 -2.29795 86 86 86 1752393037
-0.242433 -0.85784 -2.33125 86 86 86 1752393037
-0.245998 -0.85784 -2.36554 86 86 86 1752393037
-0.246378 -0.846529 -2.36919 86 86 86 1752393037
-0.246378 -0.833894 -2.36919 86 86 86 1752393037
-0.246378 -0.821259 -2.36919 86 86 86 1752393037
-0.246378 -0.808624 -2.36919 86 86 86 1752393037
-0.246378 -0.79599 -2.36919 86 86 86 1752393037
-0.246378 -0.783355 -2.36919 86 86 86 1752393037
-0.246378 -0.77072 -2.36918 86 86 86 1752393037
-0.246378 -0.758085 -2.36919 86 86 86 1752393037
-0.246378 -0.745451 -2.36919 86 86 86 1752393037
-0.246378 -0.732816 -2.36918 86 86 86 1752393037
-0.246378 -0.720181 -2.36919 86 86 86 1752393037
-0.246378 -0.707546 -2.36919 86 86 86 1752393037
-0.246378 -0.694912 -2.36919 86 86 86 1752393037
-0.246378 -0.682277 -2.36919 86 86 86 1752393037
-0.246378 -0.669642 -2.36918 86 86 86 1752393037
-0.246378 -0.657007 -2.36919 86 86 86 1752393037
-0.246378 -0.644372 -2.36918 86 86 86 1752393037
-0.246378 -0.631738 -2.36919 86 86 86 1752393037
-0.229452 -0.576573 -2.20643 86 86 86 1752393037
-0.229452 -0.564806 -2.20643 86 86 86 1752393037
-0.229452 -0.553039 -2.20643 86 86 86 1752393037
-0.229452 -0.541272 -2.20643 86 86 86 1752393037
-0.229542 -0.529712 -2.20729 86 86 86 1752393037
-0.234759 -0.529712 -2.25746 86 86 86 1752393037
-0.240218 -0.529712 -2.30996 86 86 86 1752393037
-0.245938 -0.529712 -2.36495 86 86 86 1752393037
-0.251936 -0.529712 -2.42264 86 86 86 1752393037
-0.258235 -0.529712 -2.4832 86 86 86 1752393037
-0.264856 -0.529712 -2.54688 86 86 86 1752393037
-0.271826 -0.529712 -2.6139 86 86 86 1752393037
-0.279173 -0.529712 -2.68454 86 86 86 1752393037
-0.286927 -0.529712 -2.75911 86 86 86 1752393037
-0.287669 -0.51633 -2.76625 86 86 86 1752393037
-0.287669 -0.501577 -2.76625 86 86 86 1752393037
-0.287669 -0.486825 -2.76625 86 86 86 1752393037
-0.287669 -0.472073 -2.76625 86 86 86 1752393037
-0.287669 -0.457321 -2.76625 86 86 86 1752393037
-0.287669 -0.442568 -2.76625 86 86 86 1752393037
-0.287669 -0.427816 -2.76625 86 86 86 1752393037
-0.287669 -0.413064 -2.76625 86 86 86 1752393037
-0.287669 -0.398311 -2.76625 86 86 86 1752393037
-0.287669 -0.383559 -2.76625 86 86 86 1752393037
-0.287669 -0.368807 -2.76625 86 86 86 1752393037
-0.287669 -0.354055 -2.76625 86 86 86 1752393037
-0.287669 -0.339302 -2.76625 86 86 86 1752393037
-0.287669 -0.32455 -2.76625 86 86 86 1752393037
-0.287669 -0.309798 -2.76625 86 86 86 1752393037
-0.229452 -0.235336 -2.20643 86 86 86 1752393037
-0.229452 -0.223569 -2.20643 86 86 86 1752393037
-0.229452 -0.211802 -2.20643 86 86 86 1752393037
-0.229452 -0.200035 -2.20643 86 86 86 1752393037
-0.239069 -0.196159 -2.2989 86 86 86 1752393037
-0.255007 -0.196159 -2.45216 86 86 86 1752393037
-0.273222 -0.196159 -2.62732 86 86 86 1752393037
-0.321638 -0.214425 -3.0929 204 182 121 1752393037
-0.321638 -0.197931 -3.09289 204 182 121 1752393037
-0.259506 -0.146388 -2.49543 0 0 0 1752393037
-0.259515 -0.133085 -2.49552 0 0 0 1752393037
-0.261573 -0.120726 -2.5153 0 0 0 1752393037
-0.261581 -0.107315 -2.51539 0 0 0 1752393037
-0.26159 -0.093904 -2.51547 0 0 0 1752393037
-0.261599 -0.080492 -2.51555 0 0 0 1752393037
-0.261607 -0.067079 -2.51563 86 86 86 1752393037
-0.261616 -0.053665 -2.51571 86 86 86 1752393037
-0.261624 -0.04025 -2.5158 86 86 86 1752393037
-0.261633 -0.026834 -2.51588 86 86 86 1752393037
-0.261641 -0.013418 -2.51596 86 86 86 1752393037
-0.26165 0 -2.51604 86 86 86 1752393037
-0.261658 0.013418 -2.51612 86 86 86 1752393037
-0.261667 0.026838 -2.51621 86 86 86 1752393037
-0.261675 0.040258 -2.51629 86 86 86 1752393037
-0.261684 0.053679 -2.51637 86 86 86 1752393037
-0.261692 0.067101 -2.51645 86 86 86 1752393037
-0.261701 0.080523 -2.51654 86 86 86 1752393037
-0.261709 0.093947 -2.51662 86 86 86 1752393037
-0.261718 0.107372 -2.5167 86 86 86 1752393037
-0.261727 0.120797 -2.51678 86 86 86 1752393037
-0.261735 0.134223 -2.51686 86 86 86 1752393037
-0.261744 0.14765 -2.51694 86 86 86 1752393037
-0.261752 0.161078 -2.51703 86 86 86 1752393037
-0.261761 0.174507 -2.51711 86 86 86 1752393037
-0.261769 0.187937 -2.51719 86 86 86 1752393037
-0.261778 0.201367 -2.51727 86 86 86 1752393037
-0.261786 0.214799 -2.51735 86 86 86 1752393037
-0.261795 0.228231 -2.51744 86 86 86 1752393037
-0.261803 0.241665 -2.51752 86 86 86 1752393037
-0.261812 0.255099 -2.5176 86 86 86 1752393037
-0.26182 0.268534 -2.51768 86 86 86 1752393037
-0.261829 0.28197 -2.51777 86 86 86 1752393037
-0.261837 0.295406 -2.51785 86 86 86 1752393037
-0.261846 0.308844 -2.51793 86 86 86 1752393037
-0.261855 0.322282 -2.51801 86 86 86 1752393037
-0.261863 0.335722 -2.51809 86 86 86 1752393037
-0.261872 0.349162 -2.51818 86 86 86 1752393037
-0.26188 0.362603 -2.51826 86 86 86 1752393037
-0.261889 0.376045 -2.51834 86 86 86 1752393037
-0.261897 0.389488 -2.51842 86 86 86 1752393037
-0.261906 0.402932 -2.51851 86 86 86 1752393037
-0.261914 0.416377 -2.51859 86 86 86 1752393037
-0.261923 0.429822 -2.51867 86 86 86 1752393037
-0.261931 0.443269 -2.51875 86 86 86 1752393037
-0.26194 0.456716 -2.51883 86 86 86 1752393037
-0.261948 0.470164 -2.51891 86 86 86 1752393037
-0.261957 0.483613 -2.519 86 86 86 1752393037
-0.261966 0.497063 -2.51908 86 86 86 1752393037
-0.261974 0.510514 -2.51916 86 86 86 1752393037
-0.261983 0.523965 -2.51924 86 86 86 1752393037
-0.261991 0.537418 -2.51933 86 86 86 1752393037
-0.262 0.550871 -2.51941 86 86 86 1752393037
-0.262008 0.564326 -2.51949 86 86 86 1752393037
-0.262017 0.577781 -2.51957 86 86 86 1752393037
-0.262025 0.591237 -2.51965 86 86 86 1752393037
-0.262034 0.604694 -2.51974 86 86 86 1752393037
-0.262042 0.618152 -2.51982 86 86 86 1752393037
-0.262051 0.63161 -2.5199 86 86 86 1752393037
-0.26206 0.64507 -2.51998 86 86 86 1752393037
-0.262068 0.65853 -2.52007 86 86 86 1752393037
-0.262077 0.671992 -2.52015 86 86 86 1752393037
-0.262085 0.685454 -2.52023 86 86 86 1752393037
-0.262094 0.698917 -2.52031 86 86 86 1752393037
-0.262102 0.712381 -2.5204 86 86 86 1752393037
-0.262111 0.725846 -2.52048 86 86 86 1752393037
-0.26212 0.739311 -2.52056 86 86 86 1752393037
-0.262128 0.752778 -2.52064 86 86 86 1752393037
-0.262137 0.766245 -2.52072 86 86 86 1752393037
-0.262145 0.779714 -2.52081 86 86 86 1752393037
-0.262153 0.793182 -2.52089 0 0 0 1752393037
-0.262162 0.806652 -2.52097 0 0 0 1752393037
-0.26217 0.820122 -2.52105 0 0 0 1752393037
-0.262178 0.833593 -2.52113 0 0 0 1752393037
-0.321638 1.03914 -3.0929 204 182 121 1752393037
-0.321638 1.05563 -3.0929 204 182 121 1752393037
-0.321638 1.07213 -3.0929 204 182 121 1752393037
-0.321638 1.08862 -3.0929 204 182 121 1752393037
-0.321638 1.10512 -3.0929 204 182 121 1752393037
-0.321638 1.12161 -3.0929 204 182 121 1752393037
-0.321638 1.13811 -3.0929 204 182 121 1752393037
-0.321638 1.1546 -3.0929 204 182 121 1752393037
-0.321638 1.17109 -3.0929 204 182 121 1752393037
-0.321638 1.18759 -3.0929 204 182 121 1752393037
-0.321638 1.20408 -3.0929 204 182 121 1752393037
-0.321638 1.22058 -3.0929 204 182 121 1752393037
-0.221538 -0.886153 -2.21554 86 86 86 1752393037
-0.221538 -0.874338 -2.21554 86 86 86 1752393037
-0.221538 -0.862522 -2.21554 86 86 86 1752393037
-0.223396 -0.85784 -2.23412 86 86 86 1752393037
-0.226542 -0.85784 -2.26558 86 86 86 1752393037
-0.229779 -0.85784 -2.29795 86 86 86 1752393037
-0.233109 -0.85784 -2.33125 86 86 86 1752393037
-0.236 -0.855894 -2.36017 86 86 86 1752393037
-0.236 -0.843308 -2.36017 86 86 86 1752393037
-0.236 -0.830721 -2.36017 86 86 86 1752393037
-0.236 -0.818134 -2.36017 86 86 86 1752393037
-0.236 -0.805548 -2.36017 86 86 86 1752393037
-0.236 -0.792961 -2.36017 86 86 86 1752393037
-0.236 -0.780374 -2.36017 86 86 86 1752393037
-0.236 -0.767787 -2.36017 86 86 86 1752393037
-0.236 -0.755201 -2.36017 86 86 86 1752393037
-0.236 -0.742614 -2.36017 86 86 86 1752393037
-0.236 -0.730027 -2.36017 86 86 86 1752393037
-0.236 -0.717441 -2.36017 86 86 86 1752393037
-0.236 -0.704854 -2.36017 86 86 86 1752393037
-0.236 -0.692267 -2.36017 86 86 86 1752393037
-0.236 -0.679681 -2.36017 86 86 86 1752393037
-0.236 -0.667094 -2.36017 86 86 86 1752393037
-0.236 -0.654507 -2.36017 86 86 86 1752393037
-0.236 -0.641921 -2.36017 86 86 86 1752393037
-0.236 -0.629334 -2.36017 86 86 86 1752393037
-0.236 -0.616747 -2.36017 86 86 86 1752393037
-0.221538 -0.567138 -2.21554 86 86 86 1752393037
-0.221538 -0.555323 -2.21554 86 86 86 1752393037
-0.221538 -0.543507 -2.21554 86 86 86 1752393037
-0.221538 -0.531692 -2.21554 86 86 86 1752393037
-0.22573 -0.529712 -2.25746 86 86 86 1752393037
-0.230979 -0.529712 -2.30996 86 86 86 1752393037
-0.236479 -0.529712 -2.36495 86 86 86 1752393037
-0.242246 -0.529712 -2.42264 86 86 86 1752393037
-0.248303 -0.529712 -2.4832 86 86 86 1752393037
-0.254669 -0.529712 -2.54688 86 86 86 1752393037
-0.261371 -0.529712 -2.6139 86 86 86 1752393037
-0.268435 -0.529712 -2.68454 86 86 86 1752393037
-0.275553 -0.529061 -2.75572 86 86 86 1752393037
-0.275553 -0.514365 -2.75572 86 86 86 1752393037
-0.275553 -0.499669 -2.75572 86 86 86 1752393037
-0.275553 -0.484973 -2.75572 86 86 86 1752393037
-0.275553 -0.470277 -2.75572 86 86 86 1752393037
-0.275553 -0.455581 -2.75572 86 86 86 1752393037
-0.275553 -0.440884 -2.75572 86 86 86 1752393037
-0.275553 -0.426188 -2.75572 86 86 86 1752393037
-0.275553 -0.411492 -2.75572 86 86 86 1752393037
-0.275553 -0.396796 -2.75572 86 86 86 1752393037
-0.275553 -0.3821 -2.75572 86 86 86 1752393037
-0.275553 -0.367404 -2.75572 86 86 86 1752393037
-0.275553 -0.352707 -2.75572 86 86 86 1752393037
-0.275553 -0.338011 -2.75572 86 86 86 1752393037
-0.275553 -0.323315 -2.75572 86 86 86 1752393037
-0.275553 -0.308619 -2.75572 86 86 86 1752393037
-0.221538 -0.236308 -2.21554 86 86 86 1752393037
-0.221538 -0.224492 -2.21554 86 86 86 1752393037
-0.221538 -0.212677 -2.21554 86 86 86 1752393037
-0.221538 -0.200861 -2.21554 86 86 86 1752393037
-0.229874 -0.196159 -2.2989 86 86 86 1752393037
-0.245199 -0.196159 -2.45216 86 86 86 1752393037
-0.262713 -0.196159 -2.62732 86 86 86 1752393037
-0.311094 -0.215692 -3.11116 204 182 121 1752393037
-0.311094 -0.1991 -3.11116 204 182 121 1752393037
-0.250315 -0.146852 -2.50333 0 0 0 1752393037
-0.250324 -0.133506 -2.50342 0 0 0 1752393037
-0.252309 -0.121108 -2.52327 0 0 0 1752393037
-0.252317 -0.107655 -2.52335 0 0 0 1752393037
-0.252325 -0.094201 -2.52343 0 0 0 1752393037
-0.252334 -0.080747 -2.52352 0 0 0 1752393037
-0.252342 -0.067291 -2.5236 86 86 86 1752393037
-0.25235 -0.053835 -2.52368 86 86 86 1752393037
-0.252359 -0.040377 -2.52377 86 86 86 1752393037
-0.252367 -0.026919 -2.52385 86 86 86 1752393037
-0.252375 -0.01346 -2.52393 86 86 86 1752393037
-0.252383 0 -2.52401 86 86 86 1752393037
-0.252392 0.013461 -2.5241 86 86 86 1752393037
-0.2524 0.026923 -2.52418 86 86 86 1752393037
-0.252408 0.040385 -2.52426 86 86 86 1752393037
-0.252416 0.053849 -2.52434 86 86 86 1752393037
-0.252425 0.067313 -2.52443 86 86 86 1752393037
-0.252433 0.080778 -2.52451 86 86 86 1752393037
-0.252441 0.094245 -2.52459 86 86 86 1752393037
-0.252449 0.107712 -2.52467 86 86 86 1752393037
-0.252458 0.12118 -2.52476 86 86 86 1752393037
-0.252466 0.134648 -2.52484 86 86 86 1752393037
-0.252474 0.148118 -2.52492 86 86 86 1752393037
-0.252482 0.161589 -2.525 86 86 86 1752393037
-0.252491 0.17506 -2.52508 86 86 86 1752393037
-0.252499 0.188532 -2.52517 86 86 86 1752393037
-0.252507 0.202006 -2.52525 86 86 86 1752393037
-0.252515 0.21548 -2.52533 86 86 86 1752393037
-0.252524 0.228955 -2.52542 86 86 86 1752393037
-0.252532 0.242431 -2.5255 86 86 86 1752393037
-0.25254 0.255907 -2.52558 86 86 86 1752393037
-0.252548 0.269385 -2.52566 86 86 86 1752393037
-0.252557 0.282863 -2.52575 86 86 86 1752393037
-0.252565 0.296343 -2.52583 86 86 86 1752393037
-0.252573 0.309823 -2.52591 86 86 86 1752393037
-0.252581 0.323304 -2.52599 86 86 86 1752393037
-0.25259 0.336786 -2.52608 86 86 86 1752393037
-0.252598 0.350269 -2.52616 86 86 86 1752393037
-0.252606 0.363753 -2.52624 86 86 86 1752393037
-0.252614 0.377238 -2.52632 86 86 86 1752393037
-0.252623 0.390723 -2.52641 86 86 86 1752393037
-0.252631 0.40421 -2.52649 86 86 86 1752393037
-0.252639 0.417697 -2.52657 86 86 86 1752393037
-0.252648 0.431185 -2.52665 86 86 86 1752393037
-0.252656 0.444674 -2.52674 86 86 86 1752393037
-0.252664 0.458164 -2.52682 86 86 86 1752393037
-0.252672 0.471655 -2.5269 86 86 86 1752393037
-0.252681 0.485147 -2.52699 86 86 86 1752393037
-0.252689 0.498639 -2.52707 86 86 86 1752393037
-0.252697 0.512133 -2.52715 86 86 86 1752393037
-0.252705 0.525627 -2.52723 86 86 86 1752393037
-0.252714 0.539123 -2.52732 86 86 86 1752393037
-0.252722 0.552619 -2.5274 86 86 86 1752393037
-0.25273 0.566116 -2.52748 86 86 86 1752393037
-0.252738 0.579614 -2.52757 86 86 86 1752393037
-0.252747 0.593112 -2.52765 86 86 86 1752393037
-0.252755 0.606612 -2.52773 86 86 86 1752393037
-0.252763 0.620113 -2.52781 86 86 86 1752393037
-0.252772 0.633614 -2.5279 86 86 86 1752393037
-0.25278 0.647116 -2.52798 86 86 86 1752393037
-0.252788 0.660619 -2.52806 86 86 86 1752393037
-0.252796 0.674124 -2.52814 86 86 86 1752393037
-0.252805 0.687629 -2.52823 86 86 86 1752393037
-0.252813 0.701134 -2.52831 86 86 86 1752393037
-0.252821 0.714641 -2.52839 86 86 86 1752393037
-0.252829 0.728149 -2.52848 86 86 86 1752393037
-0.252838 0.741657 -2.52856 86 86 86 1752393037
-0.252846 0.755167 -2.52864 86 86 86 1752393037
-0.252854 0.768677 -2.52872 86 86 86 1752393037
-0.252863 0.782188 -2.52881 86 86 86 1752393037
-0.252871 0.7957 -2.52889 0 0 0 1752393037
-0.252879 0.809212 -2.52897 0 0 0 1752393037
-0.252887 0.822725 -2.52905 0 0 0 1752393037
-0.252895 0.836239 -2.52913 0 0 0 1752393037
-0.311094 1.04527 -3.11116 204 182 121 1752393037
-0.311094 1.06187 -3.11116 204 182 121 1752393037
-0.311094 1.07846 -3.11116 204 182 121 1752393037
-0.311094 1.09505 -3.11116 204 182 121 1752393037
-0.311094 1.11164 -3.11116 204 182 121 1752393037
-0.311094 1.12823 -3.11116 204 182 121 1752393037
-0.311094 1.14482 -3.11116 204 182 121 1752393037
-0.311094 1.16142 -3.11116 204 182 121 1752393037
-0.311094 1.17801 -3.11116 204 182 121 1752393037
-0.311094 1.1946 -3.11116 204 182 121 1752393037
-0.311094 1.21119 -3.11116 204 182 121 1752393037
-0.311094 1.22778 -3.11116 204 182 121 1752393037
-0.213559 -0.889827 -2.22473 86 86 86 1752393037
-0.213559 -0.877963 -2.22473 86 86 86 1752393037
-0.213559 -0.866099 -2.22473 86 86 86 1752393037
-0.21446 -0.85784 -2.23412 86 86 86 1752393037
-0.217481 -0.85784 -2.26558 86 86 86 1752393037
-0.220587 -0.85784 -2.29795 86 86 86 1752393037
-0.223784 -0.85784 -2.33125 86 86 86 1752393037
-0.225701 -0.85265 -2.35122 86 86 86 1752393037
-0.225701 -0.840111 -2.35122 86 86 86 1752393037
-0.225701 -0.827572 -2.35122 86 86 86 1752393037
-0.225701 -0.815033 -2.35122 86 86 86 1752393037
-0.225701 -0.802494 -2.35122 86 86 86 1752393037
-0.225701 -0.789955 -2.35122 86 86 86 1752393037
-0.225701 -0.777416 -2.35122 86 86 86 1752393037
-0.225701 -0.764877 -2.35122 86 86 86 1752393037
-0.225701 -0.752338 -2.35122 86 86 86 1752393037
-0.225701 -0.739799 -2.35122 86 86 86 1752393037
-0.225701 -0.72726 -2.35122 86 86 86 1752393037
-0.225701 -0.714721 -2.35122 86 86 86 1752393037
-0.225701 -0.702182 -2.35122 86 86 86 1752393037
-0.225701 -0.689643 -2.35122 86 86 86 1752393037
-0.225701 -0.677104 -2.35122 86 86 86 1752393037
-0.225701 -0.664566 -2.35122 86 86 86 1752393037
-0.225701 -0.652026 -2.35122 86 86 86 1752393037
-0.225701 -0.639488 -2.35122 86 86 86 1752393037
-0.225701 -0.626949 -2.35122 86 86 86 1752393037
-0.225701 -0.614409 -2.35122 86 86 86 1752393037
-0.213559 -0.56949 -2.22473 86 86 86 1752393037
-0.213559 -0.557625 -2.22473 86 86 86 1752393037
-0.213559 -0.545761 -2.22473 86 86 86 1752393037
-0.213559 -0.533896 -2.22473 86 86 86 1752393037
-0.2167 -0.529712 -2.25746 86 86 86 1752393037
-0.22174 -0.529712 -2.30996 86 86 86 1752393037
-0.227019 -0.529712 -2.36495 86 86 86 1752393037
-0.232557 -0.529712 -2.42264 86 86 86 1752393037
-0.23837 -0.529712 -2.4832 86 86 86 1752393037
-0.244482 -0.529712 -2.54688 86 86 86 1752393037
-0.250916 -0.529712 -2.6139 86 86 86 1752393037
-0.257698 -0.529712 -2.68454 86 86 86 1752393037
-0.263528 -0.527056 -2.74528 86 86 86 1752393037
-0.263528 -0.512415 -2.74528 86 86 86 1752393037
-0.263528 -0.497775 -2.74528 86 86 86 1752393037
-0.263528 -0.483135 -2.74528 86 86 86 1752393037
-0.263528 -0.468494 -2.74528 86 86 86 1752393037
-0.263528 -0.453854 -2.74528 86 86 86 1752393037
-0.263528 -0.439213 -2.74528 86 86 86 1752393037
-0.263528 -0.424573 -2.74528 86 86 86 1752393037
