ply
format ascii 1.0
comment PCL generated
obj_info is_cyberware_data 0
obj_info is_mesh 0
obj_info is_warped 0
obj_info is_interlaced 0
obj_info num_cols 30000
obj_info num_rows 1
obj_info echo_rgb_offset_x 0
obj_info echo_rgb_offset_y 0
obj_info echo_rgb_offset_z 0
obj_info echo_rgb_frontfocus 0.0
obj_info echo_rgb_backfocus 0.0
obj_info echo_rgb_pixelsize 0.0
obj_info echo_rgb_centerpixel 0
obj_info echo_frames 1
obj_info echo_lgincr 0.0
element vertex 1004
property float x
property float y
property float z
property uchar red
property uchar green
property uchar blue
property uint label
end_header
0.769027 0.349832 -2.26201 86 86 86 1752393037
0.76905 0.361906 -2.26207 86 86 86 1752393037
0.769072 0.37398 -2.26214 86 86 86 1752393037
0.769095 0.386055 -2.2622 86 86 86 1752393037
0.769117 0.398131 -2.26227 86 86 86 1752393037
0.76914 0.410208 -2.26234 86 86 86 1752393037
0.769162 0.422285 -2.2624 86 86 86 1752393037
0.769185 0.434363 -2.26247 86 86 86 1752393037
0.769207 0.446442 -2.26254 86 86 86 1752393037
0.76923 0.458521 -2.2626 86 86 86 1752393037
0.769252 0.470601 -2.26267 86 86 86 1752393037
0.769275 0.482682 -2.26273 86 86 86 1752393037
0.769298 0.494764 -2.2628 86 86 86 1752393037
0.76932 0.506846 -2.26287 86 86 86 1752393037
0.769343 0.518929 -2.26293 86 86 86 1752393037
0.769365 0.531013 -2.263 86 86 86 1752393037
0.769388 0.543097 -2.26307 86 86 86 1752393037
0.76941 0.555182 -2.26313 86 86 86 1752393037
0.769433 0.567268 -2.2632 86 86 86 1752393037
0.769455 0.579355 -2.26326 86 86 86 1752393037
0.769478 0.591442 -2.26333 86 86 86 1752393037
0.7695 0.60353 -2.2634 86 86 86 1752393037
0.769523 0.615618 -2.26346 86 86 86 1752393037
0.769546 0.627708 -2.26353 86 86 86 1752393037
0.769568 0.639798 -2.2636 86 86 86 1752393037
0.769591 0.651889 -2.26366 86 86 86 1752393037
0.769613 0.66398 -2.26373 86 86 86 1752393037
0.769636 0.676072 -2.2638 86 86 86 1752393037
0.769658 0.688165 -2.26386 86 86 86 1752393037
0.769681 0.700259 -2.26393 86 86 86 1752393037
0.769703 0.712353 -2.26399 86 86 86 1752393037
0.769726 0.724448 -2.26406 86 86 86 1752393037
0.769749 0.736544 -2.26413 86 86 86 1752393037
0.769771 0.74864 -2.26419 86 86 86 1752393037
0.769794 0.760737 -2.26426 86 86 86 1752393037
0.769816 0.772835 -2.26433 86 86 86 1752393037
0.769839 0.784933 -2.26439 0 0 0 1752393037
0.769861 0.797032 -2.26446 0 0 0 1752393037
0.769882 0.809131 -2.26452 0 0 0 1752393037
0.769904 0.821231 -2.26459 0 0 0 1752393037
0.769926 0.833332 -2.26465 0 0 0 1752393037
0.891409 0.978802 -2.62198 204 182 121 1752393037
0.891409 0.992785 -2.62198 204 182 121 1752393037
0.891409 1.00677 -2.62198 204 182 121 1752393037
0.891409 1.02075 -2.62198 204 182 121 1752393037
0.891409 1.03473 -2.62198 204 182 121 1752393037
0.689422 -0.801654 -2.00428 86 86 86 1752393037
0.689422 -0.790965 -2.00428 86 86 86 1752393037
0.689422 -0.780277 -2.00428 86 86 86 1752393037
0.689422 -0.769588 -2.00428 86 86 86 1752393037
0.689422 -0.758899 -2.00428 86 86 86 1752393037
0.689422 -0.74821 -2.00428 86 86 86 1752393037
0.689422 -0.737522 -2.00428 86 86 86 1752393037
0.689422 -0.726833 -2.00428 86 86 86 1752393037
0.689422 -0.716144 -2.00428 86 86 86 1752393037
0.689422 -0.705455 -2.00428 86 86 86 1752393037
0.689422 -0.694767 -2.00428 86 86 86 1752393037
0.689422 -0.684078 -2.00428 86 86 86 1752393037
0.689422 -0.673389 -2.00428 86 86 86 1752393037
0.689422 -0.6627 -2.00428 86 86 86 1752393037
0.689422 -0.652012 -2.00428 86 86 86 1752393037
0.689422 -0.641323 -2.00428 86 86 86 1752393037
0.689422 -0.630634 -2.00428 86 86 86 1752393037
0.689422 -0.619946 -2.00428 86 86 86 1752393037
0.689422 -0.609257 -2.00428 86 86 86 1752393037
0.689422 -0.598568 -2.00428 86 86 86 1752393037
0.689422 -0.587879 -2.00428 86 86 86 1752393037
0.689422 -0.577191 -2.00428 86 86 86 1752393037
0.689422 -0.566502 -2.00428 86 86 86 1752393037
0.689422 -0.555813 -2.00428 86 86 86 1752393037
0.689422 -0.545125 -2.00428 86 86 86 1752393037
0.689422 -0.534436 -2.00428 86 86 86 1752393037
0.689422 -0.523747 -2.00428 86 86 86 1752393037
0.689422 -0.513058 -2.00428 86 86 86 1752393037
0.689422 -0.50237 -2.00428 86 86 86 1752393037
0.689422 -0.491681 -2.00428 86 86 86 1752393037
0.689422 -0.480992 -2.00428 86 86 86 1752393037
0.689422 -0.470304 -2.00428 86 86 86 1752393037
0.689422 -0.459615 -2.00428 86 86 86 1752393037
0.689422 -0.448926 -2.00428 86 86 86 1752393037
0.689422 -0.438237 -2.00428 86 86 86 1752393037
0.689422 -0.427549 -2.00428 86 86 86 1752393037
0.689422 -0.41686 -2.00428 86 86 86 1752393037
0.689422 -0.406171 -2.00428 86 86 86 1752393037
0.689422 -0.395483 -2.00428 86 86 86 1752393037
0.689422 -0.384794 -2.00428 86 86 86 1752393037
0.689422 -0.374105 -2.00428 86 86 86 1752393037
0.689422 -0.363416 -2.00428 86 86 86 1752393037
0.689422 -0.352728 -2.00428 86 86 86 1752393037
0.689422 -0.342039 -2.00428 86 86 86 1752393037
0.689422 -0.33135 -2.00428 86 86 86 1752393037
0.689422 -0.320662 -2.00428 86 86 86 1752393037
0.689422 -0.309973 -2.00428 86 86 86 1752393037
0.689422 -0.299284 -2.00428 86 86 86 1752393037
0.689422 -0.288595 -2.00428 86 86 86 1752393037
0.689422 -0.277907 -2.00428 86 86 86 1752393037
0.689422 -0.267218 -2.00428 86 86 86 1752393037
0.689422 -0.256529 -2.00428 86 86 86 1752393037
0.689422 -0.245841 -2.00428 86 86 86 1752393037
0.689422 -0.235152 -2.00428 86 86 86 1752393037
0.689422 -0.224463 -2.00428 86 86 86 1752393037
0.689422 -0.213774 -2.00428 86 86 86 1752393037
0.689422 -0.203086 -2.00428 86 86 86 1752393037
0.69076 -0.19277 -2.00817 86 86 86 1752393037
0.744251 -0.196159 -2.16368 86 86 86 1752393037
0.790767 -0.196159 -2.29891 86 86 86 1752393037
0.843485 -0.196159 -2.45217 86 86 86 1752393037
0.904494 -0.196324 -2.62953 204 182 121 1752393037
0.904494 -0.182301 -2.62953 204 182 121 1752393037
0.904494 -0.168278 -2.62953 204 182 121 1752393037
0.904495 -0.154255 -2.62953 204 182 121 1752393037
0.777814 -0.120591 -2.26125 0 0 0 1752393037
0.777837 -0.108535 -2.26132 0 0 0 1752393037
0.77786 -0.096479 -2.26138 0 0 0 1752393037
0.777883 -0.084421 -2.26145 0 0 0 1752393037
0.777906 -0.072363 -2.26151 86 86 86 1752393037
0.777928 -0.060305 -2.26158 86 86 86 1752393037
0.777951 -0.048245 -2.26165 86 86 86 1752393037
0.777974 -0.036185 -2.26171 86 86 86 1752393037
0.777997 -0.024124 -2.26178 86 86 86 1752393037
0.77802 -0.012062 -2.26185 86 86 86 1752393037
0.778042 0 -2.26191 86 86 86 1752393037
0.778065 0.012063 -2.26198 86 86 86 1752393037
0.778088 0.024127 -2.26204 86 86 86 1752393037
0.778111 0.036191 -2.26211 86 86 86 1752393037
0.778134 0.048256 -2.26218 86 86 86 1752393037
0.778156 0.060322 -2.26224 86 86 86 1752393037
0.778179 0.072389 -2.26231 86 86 86 1752393037
0.778202 0.084456 -2.26238 86 86 86 1752393037
0.778225 0.096524 -2.26244 86 86 86 1752393037
0.778247 0.108593 -2.26251 86 86 86 1752393037
0.77827 0.120662 -2.26257 86 86 86 1752393037
0.778293 0.132732 -2.26264 86 86 86 1752393037
0.778316 0.144803 -2.26271 86 86 86 1752393037
0.778339 0.156874 -2.26277 86 86 86 1752393037
0.778362 0.168947 -2.26284 86 86 86 1752393037
0.778384 0.18102 -2.26291 86 86 86 1752393037
0.778407 0.193093 -2.26297 86 86 86 1752393037
0.77843 0.205168 -2.26304 86 86 86 1752393037
0.778453 0.217243 -2.26311 86 86 86 1752393037
0.778476 0.229318 -2.26317 86 86 86 1752393037
0.778498 0.241395 -2.26324 86 86 86 1752393037
0.778521 0.253472 -2.2633 86 86 86 1752393037
0.778544 0.26555 -2.26337 86 86 86 1752393037
0.778567 0.277628 -2.26344 86 86 86 1752393037
0.77859 0.289708 -2.2635 86 86 86 1752393037
0.778612 0.301788 -2.26357 86 86 86 1752393037
0.778635 0.313869 -2.26364 86 86 86 1752393037
0.778658 0.32595 -2.2637 86 86 86 1752393037
0.778681 0.338032 -2.26377 86 86 86 1752393037
0.778704 0.350115 -2.26383 86 86 86 1752393037
0.778727 0.362198 -2.2639 86 86 86 1752393037
0.778749 0.374283 -2.26397 86 86 86 1752393037
0.778772 0.386368 -2.26403 86 86 86 1752393037
0.778795 0.398453 -2.2641 86 86 86 1752393037
0.778818 0.41054 -2.26417 86 86 86 1752393037
0.778841 0.422627 -2.26423 86 86 86 1752393037
0.778864 0.434715 -2.2643 86 86 86 1752393037
0.778886 0.446803 -2.26437 86 86 86 1752393037
0.778909 0.458892 -2.26443 86 86 86 1752393037
0.778932 0.470982 -2.2645 86 86 86 1752393037
0.778955 0.483073 -2.26457 86 86 86 1752393037
0.778978 0.495164 -2.26463 86 86 86 1752393037
0.779001 0.507256 -2.2647 86 86 86 1752393037
0.779024 0.519349 -2.26477 86 86 86 1752393037
0.779046 0.531442 -2.26483 86 86 86 1752393037
0.779069 0.543537 -2.2649 86 86 86 1752393037
0.779092 0.555632 -2.26496 86 86 86 1752393037
0.779115 0.567727 -2.26503 86 86 86 1752393037
0.779138 0.579823 -2.2651 86 86 86 1752393037
0.77916 0.59192 -2.26516 86 86 86 1752393037
0.779183 0.604018 -2.26523 86 86 86 1752393037
0.779206 0.616117 -2.2653 86 86 86 1752393037
0.779229 0.628216 -2.26536 86 86 86 1752393037
0.779252 0.640316 -2.26543 86 86 86 1752393037
0.779275 0.652416 -2.2655 86 86 86 1752393037
0.779298 0.664517 -2.26556 86 86 86 1752393037
0.779321 0.676619 -2.26563 86 86 86 1752393037
0.779343 0.688722 -2.2657 86 86 86 1752393037
0.779366 0.700826 -2.26576 86 86 86 1752393037
0.779389 0.71293 -2.26583 86 86 86 1752393037
0.779412 0.725035 -2.26589 86 86 86 1752393037
0.779435 0.73714 -2.26596 86 86 86 1752393037
0.779458 0.749246 -2.26603 86 86 86 1752393037
0.779481 0.761353 -2.26609 86 86 86 1752393037
0.779503 0.773461 -2.26616 86 86 86 1752393037
0.779526 0.785569 -2.26623 0 0 0 1752393037
0.779548 0.797677 -2.26629 0 0 0 1752393037
0.779571 0.809787 -2.26636 0 0 0 1752393037
0.779593 0.821896 -2.26642 0 0 0 1752393037
0.779615 0.834007 -2.26648 0 0 0 1752393037
0.904495 0.981622 -2.62953 204 182 121 1752393037
0.904495 0.995645 -2.62953 204 182 121 1752393037
0.904495 1.00967 -2.62953 204 182 121 1752393037
0.904495 1.02369 -2.62953 204 182 121 1752393037
0.904495 1.03771 -2.62953 204 182 121 1752393037
0.693412 -0.797025 -1.9927 86 86 86 1752393037
0.693412 -0.786398 -1.9927 86 86 86 1752393037
0.693412 -0.775771 -1.9927 86 86 86 1752393037
0.693412 -0.765144 -1.9927 86 86 86 1752393037
0.693412 -0.754517 -1.9927 86 86 86 1752393037
0.693412 -0.74389 -1.9927 86 86 86 1752393037
0.693412 -0.733263 -1.9927 86 86 86 1752393037
0.693412 -0.722636 -1.9927 86 86 86 1752393037
0.693412 -0.712009 -1.9927 86 86 86 1752393037
0.693412 -0.701382 -1.9927 86 86 86 1752393037
0.693412 -0.690755 -1.9927 86 86 86 1752393037
0.693412 -0.680128 -1.9927 86 86 86 1752393037
0.693412 -0.669501 -1.9927 86 86 86 1752393037
0.693412 -0.658874 -1.9927 86 86 86 1752393037
0.693412 -0.648247 -1.9927 86 86 86 1752393037
0.693412 -0.63762 -1.9927 86 86 86 1752393037
0.693412 -0.626993 -1.9927 86 86 86 1752393037
0.693412 -0.616366 -1.9927 86 86 86 1752393037
0.693412 -0.605739 -1.9927 86 86 86 1752393037
0.693412 -0.595112 -1.9927 86 86 86 1752393037
0.693412 -0.584485 -1.9927 86 86 86 1752393037
0.693412 -0.573858 -1.9927 86 86 86 1752393037
0.693412 -0.563231 -1.9927 86 86 86 1752393037
0.693412 -0.552604 -1.9927 86 86 86 1752393037
0.693412 -0.541977 -1.9927 86 86 86 1752393037
0.693412 -0.53135 -1.9927 86 86 86 1752393037
0.693412 -0.520723 -1.9927 86 86 86 1752393037
0.693412 -0.510096 -1.9927 86 86 86 1752393037
0.693412 -0.499469 -1.9927 86 86 86 1752393037
0.693412 -0.488842 -1.9927 86 86 86 1752393037
0.693412 -0.478215 -1.9927 86 86 86 1752393037
0.693412 -0.467588 -1.9927 86 86 86 1752393037
0.693412 -0.456961 -1.9927 86 86 86 1752393037
0.693412 -0.446334 -1.9927 86 86 86 1752393037
0.693412 -0.435707 -1.9927 86 86 86 1752393037
0.693412 -0.42508 -1.9927 86 86 86 1752393037
0.693412 -0.414453 -1.9927 86 86 86 1752393037
0.693412 -0.403826 -1.9927 86 86 86 1752393037
0.693412 -0.393199 -1.9927 86 86 86 1752393037
0.693412 -0.382572 -1.9927 86 86 86 1752393037
0.693412 -0.371945 -1.9927 86 86 86 1752393037
0.693412 -0.361318 -1.9927 86 86 86 1752393037
0.693412 -0.350691 -1.9927 86 86 86 1752393037
0.693412 -0.340064 -1.9927 86 86 86 1752393037
0.693412 -0.329437 -1.9927 86 86 86 1752393037
0.693412 -0.31881 -1.9927 86 86 86 1752393037
0.693412 -0.308183 -1.9927 86 86 86 1752393037
0.693412 -0.297556 -1.9927 86 86 86 1752393037
0.693412 -0.286929 -1.9927 86 86 86 1752393037
0.693412 -0.276302 -1.9927 86 86 86 1752393037
0.693412 -0.265675 -1.9927 86 86 86 1752393037
0.693412 -0.255048 -1.9927 86 86 86 1752393037
0.693412 -0.244421 -1.9927 86 86 86 1752393037
0.693412 -0.233794 -1.9927 86 86 86 1752393037
0.693412 -0.223167 -1.9927 86 86 86 1752393037
0.693412 -0.21254 -1.9927 86 86 86 1752393037
0.693412 -0.201913 -1.9927 86 86 86 1752393037
0.698792 -0.19277 -2.00817 86 86 86 1752393037
0.752905 -0.196159 -2.16368 86 86 86 1752393037
0.799962 -0.196159 -2.29891 86 86 86 1752393037
0.853293 -0.196159 -2.45217 86 86 86 1752393037
0.917656 -0.196892 -2.63713 204 182 121 1752393037
0.917656 -0.182828 -2.63713 204 182 121 1752393037
0.917656 -0.168764 -2.63713 204 182 121 1752393037
0.917656 -0.154701 -2.63713 204 182 121 1752393037
0.787495 -0.120689 -2.26308 0 0 0 1752393037
0.787518 -0.108623 -2.26314 0 0 0 1752393037
0.787541 -0.096557 -2.26321 0 0 0 1752393037
0.787564 -0.08449 -2.26328 0 0 0 1752393037
0.787588 -0.072422 -2.26334 86 86 86 1752393037
0.787611 -0.060353 -2.26341 86 86 86 1752393037
0.787634 -0.048284 -2.26348 86 86 86 1752393037
0.787657 -0.036214 -2.26354 86 86 86 1752393037
0.78768 -0.024143 -2.26361 86 86 86 1752393037
0.787703 -0.012072 -2.26368 86 86 86 1752393037
0.787726 0 -2.26374 86 86 86 1752393037
0.787749 0.012073 -2.26381 86 86 86 1752393037
0.787772 0.024146 -2.26388 86 86 86 1752393037
0.787795 0.03622 -2.26394 86 86 86 1752393037
0.787818 0.048295 -2.26401 86 86 86 1752393037
0.787841 0.060371 -2.26407 86 86 86 1752393037
0.787865 0.072447 -2.26414 86 86 86 1752393037
0.787888 0.084524 -2.26421 86 86 86 1752393037
0.787911 0.096602 -2.26427 86 86 86 1752393037
0.787934 0.108681 -2.26434 86 86 86 1752393037
0.787957 0.12076 -2.26441 86 86 86 1752393037
0.78798 0.13284 -2.26447 86 86 86 1752393037
0.788003 0.14492 -2.26454 86 86 86 1752393037
0.788026 0.157001 -2.26461 86 86 86 1752393037
0.788049 0.169083 -2.26467 86 86 86 1752393037
0.788073 0.181166 -2.26474 86 86 86 1752393037
0.788096 0.19325 -2.2648 86 86 86 1752393037
0.788119 0.205334 -2.26487 86 86 86 1752393037
0.788142 0.217418 -2.26494 86 86 86 1752393037
0.788165 0.229504 -2.265 86 86 86 1752393037
0.788188 0.24159 -2.26507 86 86 86 1752393037
0.788211 0.253677 -2.26514 86 86 86 1752393037
0.788234 0.265765 -2.2652 86 86 86 1752393037
0.788257 0.277853 -2.26527 86 86 86 1752393037
0.788281 0.289942 -2.26534 86 86 86 1752393037
0.788304 0.302032 -2.2654 86 86 86 1752393037
0.788327 0.314123 -2.26547 86 86 86 1752393037
0.78835 0.326214 -2.26554 86 86 86 1752393037
0.788373 0.338306 -2.2656 86 86 86 1752393037
0.788396 0.350398 -2.26567 86 86 86 1752393037
0.788419 0.362492 -2.26573 86 86 86 1752393037
0.788443 0.374586 -2.2658 86 86 86 1752393037
0.788466 0.38668 -2.26587 86 86 86 1752393037
0.788489 0.398776 -2.26593 86 86 86 1752393037
0.788512 0.410872 -2.266 86 86 86 1752393037
0.788535 0.422969 -2.26607 86 86 86 1752393037
0.788558 0.435067 -2.26613 86 86 86 1752393037
0.788581 0.447165 -2.2662 86 86 86 1752393037
0.788604 0.459264 -2.26627 86 86 86 1752393037
0.788628 0.471364 -2.26633 86 86 86 1752393037
0.788651 0.483464 -2.2664 86 86 86 1752393037
0.788674 0.495565 -2.26647 86 86 86 1752393037
0.788697 0.507667 -2.26653 86 86 86 1752393037
0.78872 0.519769 -2.2666 86 86 86 1752393037
0.788743 0.531873 -2.26666 86 86 86 1752393037
0.788766 0.543977 -2.26673 86 86 86 1752393037
0.78879 0.556082 -2.2668 86 86 86 1752393037
0.788813 0.568187 -2.26687 86 86 86 1752393037
0.788836 0.580293 -2.26693 86 86 86 1752393037
0.788859 0.5924 -2.267 86 86 86 1752393037
0.788882 0.604507 -2.26707 86 86 86 1752393037
0.788905 0.616616 -2.26713 86 86 86 1752393037
0.788929 0.628725 -2.2672 86 86 86 1752393037
0.788952 0.640834 -2.26726 86 86 86 1752393037
0.788975 0.652945 -2.26733 86 86 86 1752393037
0.788998 0.665056 -2.2674 86 86 86 1752393037
0.789021 0.677168 -2.26746 86 86 86 1752393037
0.789044 0.68928 -2.26753 86 86 86 1752393037
0.789068 0.701393 -2.2676 86 86 86 1752393037
0.789091 0.713507 -2.26766 86 86 86 1752393037
0.789114 0.725622 -2.26773 86 86 86 1752393037
0.789137 0.737737 -2.2678 86 86 86 1752393037
0.78916 0.749853 -2.26786 86 86 86 1752393037
0.789183 0.76197 -2.26793 86 86 86 1752393037
0.789207 0.774088 -2.268 86 86 86 1752393037
0.789229 0.786206 -2.26806 0 0 0 1752393037
0.789252 0.798324 -2.26813 0 0 0 1752393037
0.789274 0.810443 -2.26819 0 0 0 1752393037
0.789297 0.822563 -2.26826 0 0 0 1752393037
0.78932 0.834683 -2.26832 0 0 0 1752393037
0.917656 0.984459 -2.63713 204 182 121 1752393037
0.917656 0.998523 -2.63713 204 182 121 1752393037
0.917656 1.01259 -2.63713 204 182 121 1752393037
0.917656 1.02665 -2.63713 204 182 121 1752393037
0.917656 1.04071 -2.63713 204 182 121 1752393037
0.697355 -0.792449 -1.98126 86 86 86 1752393037
0.697355 -0.781883 -1.98126 86 86 86 1752393037
0.697355 -0.771317 -1.98126 86 86 86 1752393037
0.697355 -0.760751 -1.98126 86 86 86 1752393037
0.697355 -0.750185 -1.98126 86 86 86 1752393037
0.697355 -0.739619 -1.98126 86 86 86 1752393037
0.697355 -0.729053 -1.98126 86 86 86 1752393037
0.697355 -0.718487 -1.98126 86 86 86 1752393037
0.697355 -0.707921 -1.98126 86 86 86 1752393037
0.697355 -0.697355 -1.98126 86 86 86 1752393037
0.697355 -0.686789 -1.98126 86 86 86 1752393037
0.697355 -0.676223 -1.98126 86 86 86 1752393037
0.697355 -0.665657 -1.98126 86 86 86 1752393037
0.697355 -0.655091 -1.98126 86 86 86 1752393037
0.697355 -0.644525 -1.98126 86 86 86 1752393037
0.697355 -0.633959 -1.98126 86 86 86 1752393037
0.697355 -0.623393 -1.98126 86 86 86 1752393037
0.697355 -0.612827 -1.98126 86 86 86 1752393037
0.697355 -0.602261 -1.98126 86 86 86 1752393037
0.697355 -0.591695 -1.98126 86 86 86 1752393037
0.697355 -0.581129 -1.98126 86 86 86 1752393037
0.697355 -0.570563 -1.98126 86 86 86 1752393037
0.697355 -0.559997 -1.98126 86 86 86 1752393037
0.697355 -0.549431 -1.98126 86 86 86 1752393037
0.697355 -0.538865 -1.98126 86 86 86 1752393037
0.697355 -0.528299 -1.98126 86 86 86 1752393037
0.697355 -0.517733 -1.98126 86 86 86 1752393037
0.697355 -0.507167 -1.98126 86 86 86 1752393037
0.697355 -0.496601 -1.98126 86 86 86 1752393037
0.697355 -0.486035 -1.98126 86 86 86 1752393037
0.697355 -0.475469 -1.98126 86 86 86 1752393037
0.697355 -0.464903 -1.98126 86 86 86 1752393037
0.697355 -0.454337 -1.98126 86 86 86 1752393037
0.697355 -0.443772 -1.98126 86 86 86 1752393037
0.697355 -0.433205 -1.98126 86 86 86 1752393037
0.697355 -0.422639 -1.98126 86 86 86 1752393037
0.697355 -0.412074 -1.98126 86 86 86 1752393037
0.697355 -0.401508 -1.98126 86 86 86 1752393037
0.697355 -0.390942 -1.98126 86 86 86 1752393037
0.697355 -0.380376 -1.98126 86 86 86 1752393037
0.697355 -0.36981 -1.98126 86 86 86 1752393037
0.697355 -0.359244 -1.98126 86 86 86 1752393037
0.697355 -0.348678 -1.98126 86 86 86 1752393037
0.697355 -0.338112 -1.98126 86 86 86 1752393037
0.697355 -0.327546 -1.98126 86 86 86 1752393037
0.697355 -0.31698 -1.98126 86 86 86 1752393037
0.697355 -0.306414 -1.98126 86 86 86 1752393037
0.697355 -0.295848 -1.98126 86 86 86 1752393037
0.697355 -0.285282 -1.98126 86 86 86 1752393037
0.697355 -0.274716 -1.98126 86 86 86 1752393037
0.697355 -0.26415 -1.98126 86 86 86 1752393037
0.697355 -0.253584 -1.98126 86 86 86 1752393037
0.697355 -0.243018 -1.98126 86 86 86 1752393037
0.697355 -0.232452 -1.98126 86 86 86 1752393037
0.697355 -0.221886 -1.98126 86 86 86 1752393037
0.697355 -0.21132 -1.98126 86 86 86 1752393037
0.697355 -0.200754 -1.98126 86 86 86 1752393037
0.706824 -0.19277 -2.00817 86 86 86 1752393037
0.761559 -0.196159 -2.16368 86 86 86 1752393037
0.809157 -0.196159 -2.29891 86 86 86 1752393037
0.863101 -0.196159 -2.45217 86 86 86 1752393037
0.930894 -0.197462 -2.64477 204 182 121 1752393037
0.930894 -0.183358 -2.64477 204 182 121 1752393037
0.930894 -0.169253 -2.64477 204 182 121 1752393037
0.930894 -0.155149 -2.64477 204 182 121 1752393037
0.797191 -0.120787 -2.26491 0 0 0 1752393037
0.797215 -0.108711 -2.26498 0 0 0 1752393037
0.797238 -0.096635 -2.26504 0 0 0 1752393037
0.797261 -0.084558 -2.26511 0 0 0 1752393037
0.797285 -0.07248 -2.26518 86 86 86 1752393037
0.797308 -0.060402 -2.26524 86 86 86 1752393037
0.797332 -0.048323 -2.26531 86 86 86 1752393037
0.797355 -0.036243 -2.26537 86 86 86 1752393037
0.797378 -0.024163 -2.26544 86 86 86 1752393037
0.797402 -0.012082 -2.26551 86 86 86 1752393037
0.797425 0 -2.26557 86 86 86 1752393037
0.797449 0.012083 -2.26564 86 86 86 1752393037
0.797472 0.024166 -2.26571 86 86 86 1752393037
0.797495 0.03625 -2.26577 86 86 86 1752393037
0.797519 0.048334 -2.26584 86 86 86 1752393037
0.797542 0.06042 -2.26591 86 86 86 1752393037
0.797566 0.072506 -2.26597 86 86 86 1752393037
0.797589 0.084593 -2.26604 86 86 86 1752393037
0.797612 0.09668 -2.26611 86 86 86 1752393037
0.797636 0.108769 -2.26617 86 86 86 1752393037
0.797659 0.120857 -2.26624 86 86 86 1752393037
0.797683 0.132947 -2.26631 86 86 86 1752393037
0.797706 0.145037 -2.26637 86 86 86 1752393037
0.79773 0.157129 -2.26644 86 86 86 1752393037
0.797753 0.16922 -2.26651 86 86 86 1752393037
0.797776 0.181313 -2.26657 86 86 86 1752393037
0.7978 0.193406 -2.26664 86 86 86 1752393037
0.797823 0.2055 -2.26671 86 86 86 1752393037
0.797847 0.217595 -2.26677 86 86 86 1752393037
0.79787 0.22969 -2.26684 86 86 86 1752393037
0.797893 0.241786 -2.26691 86 86 86 1752393037
0.797917 0.253883 -2.26697 86 86 86 1752393037
0.79794 0.26598 -2.26704 86 86 86 1752393037
0.797964 0.278078 -2.2671 86 86 86 1752393037
0.797987 0.290177 -2.26717 86 86 86 1752393037
0.798011 0.302277 -2.26724 86 86 86 1752393037
0.798034 0.314377 -2.2673 86 86 86 1752393037
0.798057 0.326478 -2.26737 86 86 86 1752393037
0.798081 0.33858 -2.26744 86 86 86 1752393037
0.798104 0.350682 -2.2675 86 86 86 1752393037
0.798128 0.362785 -2.26757 86 86 86 1752393037
0.798151 0.374889 -2.26764 86 86 86 1752393037
0.798175 0.386994 -2.2677 86 86 86 1752393037
0.798198 0.399099 -2.26777 86 86 86 1752393037
0.798222 0.411205 -2.26784 86 86 86 1752393037
0.798245 0.423312 -2.2679 86 86 86 1752393037
0.798268 0.435419 -2.26797 86 86 86 1752393037
0.798292 0.447527 -2.26804 86 86 86 1752393037
0.798315 0.459636 -2.2681 86 86 86 1752393037
0.798339 0.471746 -2.26817 86 86 86 1752393037
0.798362 0.483856 -2.26824 86 86 86 1752393037
0.798386 0.495967 -2.2683 86 86 86 1752393037
0.798409 0.508079 -2.26837 86 86 86 1752393037
0.798432 0.520191 -2.26844 86 86 86 1752393037
0.798456 0.532304 -2.2685 86 86 86 1752393037
0.798479 0.544418 -2.26857 86 86 86 1752393037
0.798503 0.556532 -2.26864 86 86 86 1752393037
0.798526 0.568647 -2.2687 86 86 86 1752393037
0.79855 0.580763 -2.26877 86 86 86 1752393037
0.798573 0.59288 -2.26884 86 86 86 1752393037
0.798597 0.604998 -2.2689 86 86 86 1752393037
0.79862 0.617116 -2.26897 86 86 86 1752393037
0.798644 0.629234 -2.26904 86 86 86 1752393037
0.798667 0.641354 -2.2691 86 86 86 1752393037
0.798691 0.653474 -2.26917 86 86 86 1752393037
0.798714 0.665595 -2.26924 86 86 86 1752393037
0.798737 0.677717 -2.2693 86 86 86 1752393037
0.798761 0.689839 -2.26937 86 86 86 1752393037
0.798784 0.701962 -2.26944 86 86 86 1752393037
0.798808 0.714086 -2.2695 86 86 86 1752393037
0.798831 0.72621 -2.26957 86 86 86 1752393037
0.798855 0.738335 -2.26964 86 86 86 1752393037
0.798878 0.750461 -2.2697 86 86 86 1752393037
0.798902 0.762588 -2.26977 86 86 86 1752393037
0.798925 0.774715 -2.26984 86 86 86 1752393037
0.798948 0.786843 -2.2699 0 0 0 1752393037
0.798971 0.798971 -2.26997 0 0 0 1752393037
0.798994 0.8111 -2.27003 0 0 0 1752393037
0.799017 0.82323 -2.2701 0 0 0 1752393037
0.79904 0.83536 -2.27016 0 0 0 1752393037
0.930894 0.987312 -2.64477 204 182 121 1752393037
0.930894 1.00142 -2.64477 204 182 121 1752393037
0.930894 1.01552 -2.64477 204 182 121 1752393037
0.930894 1.02963 -2.64477 204 182 121 1752393037
0.930894 1.04373 -2.64477 204 182 121 1752393037
0.701254 -0.787926 -1.96995 86 86 86 1752393037
0.701254 -0.77742 -1.96995 86 86 86 1752393037
0.701254 -0.766914 -1.96995 86 86 86 1752393037
0.701254 -0.756408 -1.96995 86 86 86 1752393037
0.701254 -0.745903 -1.96995 86 86 86 1752393037
0.701254 -0.735397 -1.96995 86 86 86 1752393037
0.701254 -0.724892 -1.96995 86 86 86 1752393037
0.701254 -0.714386 -1.96995 86 86 86 1752393037
0.701254 -0.70388 -1.96995 86 86 86 1752393037
0.701254 -0.693374 -1.96995 86 86 86 1752393037
0.701254 -0.682869 -1.96995 86 86 86 1752393037
0.701254 -0.672363 -1.96995 86 86 86 1752393037
0.701254 -0.661857 -1.96995 86 86 86 1752393037
0.701254 -0.651352 -1.96995 86 86 86 1752393037
0.701254 -0.640846 -1.96995 86 86 86 1752393037
0.701254 -0.63034 -1.96995 86 86 86 1752393037
0.701254 -0.619835 -1.96995 86 86 86 1752393037
0.701254 -0.609329 -1.96995 86 86 86 1752393037
0.701254 -0.598823 -1.96995 86 86 86 1752393037
0.701254 -0.588318 -1.96995 86 86 86 1752393037
0.701254 -0.577812 -1.96995 86 86 86 1752393037
0.701254 -0.567306 -1.96995 86 86 86 1752393037
0.701254 -0.556801 -1.96995 86 86 86 1752393037
0.701254 -0.546295 -1.96995 86 86 86 1752393037
0.701254 -0.535789 -1.96995 86 86 86 1752393037
0.701254 -0.525284 -1.96995 86 86 86 1752393037
0.701254 -0.514778 -1.96995 86 86 86 1752393037
0.701254 -0.504272 -1.96995 86 86 86 1752393037
0.701254 -0.493767 -1.96995 86 86 86 1752393037
0.701254 -0.483261 -1.96995 86 86 86 1752393037
0.701254 -0.472755 -1.96995 86 86 86 1752393037
0.701254 -0.46225 -1.96995 86 86 86 1752393037
0.701254 -0.451744 -1.96995 86 86 86 1752393037
0.701254 -0.441238 -1.96995 86 86 86 1752393037
0.701254 -0.430733 -1.96995 86 86 86 1752393037
0.701254 -0.420227 -1.96995 86 86 86 1752393037
0.701254 -0.409721 -1.96995 86 86 86 1752393037
0.701254 -0.399216 -1.96995 86 86 86 1752393037
0.701254 -0.38871 -1.96995 86 86 86 1752393037
0.701254 -0.378204 -1.96995 86 86 86 1752393037
0.701254 -0.367699 -1.96995 86 86 86 1752393037
0.701254 -0.357193 -1.96995 86 86 86 1752393037
0.701254 -0.346687 -1.96995 86 86 86 1752393037
0.701254 -0.336182 -1.96995 86 86 86 1752393037
0.701254 -0.325676 -1.96995 86 86 86 1752393037
0.701254 -0.31517 -1.96995 86 86 86 1752393037
0.701254 -0.304665 -1.96995 86 86 86 1752393037
0.701254 -0.294159 -1.96995 86 86 86 1752393037
0.701254 -0.283653 -1.96995 86 86 86 1752393037
0.701254 -0.273148 -1.96995 86 86 86 1752393037
0.701254 -0.262642 -1.96995 86 86 86 1752393037
0.701254 -0.252136 -1.96995 86 86 86 1752393037
0.701254 -0.24163 -1.96995 86 86 86 1752393037
0.701254 -0.231125 -1.96995 86 86 86 1752393037
0.701254 -0.220619 -1.96995 86 86 86 1752393037
0.701254 -0.210113 -1.96995 86 86 86 1752393037
0.701254 -0.199608 -1.96995 86 86 86 1752393037
0.714856 -0.19277 -2.00817 86 86 86 1752393037
0.770213 -0.196159 -2.16368 86 86 86 1752393037
0.818352 -0.196159 -2.29891 86 86 86 1752393037
0.872909 -0.196159 -2.45217 86 86 86 1752393037
0.944209 -0.198036 -2.65246 204 182 121 1752393037
0.944209 -0.183891 -2.65246 204 182 121 1752393037
0.944209 -0.169745 -2.65246 204 182 121 1752393037
0.944209 -0.1556 -2.65246 204 182 121 1752393037
0.806903 -0.120884 -2.26674 0 0 0 1752393037
0.806927 -0.108799 -2.26681 0 0 0 1752393037
0.806951 -0.096713 -2.26688 0 0 0 1752393037
0.806974 -0.084627 -2.26694 0 0 0 1752393037
0.806998 -0.072539 -2.26701 86 86 86 1752393037
0.807022 -0.060451 -2.26708 86 86 86 1752393037
0.807045 -0.048362 -2.26714 86 86 86 1752393037
0.807069 -0.036273 -2.26721 86 86 86 1752393037
0.807093 -0.024183 -2.26728 86 86 86 1752393037
0.807117 -0.012092 -2.26734 86 86 86 1752393037
0.80714 0 -2.26741 86 86 86 1752393037
0.807164 0.012092 -2.26748 86 86 86 1752393037
0.807188 0.024185 -2.26754 86 86 86 1752393037
0.807211 0.036279 -2.26761 86 86 86 1752393037
0.807235 0.048374 -2.26768 86 86 86 1752393037
0.807259 0.060469 -2.26774 86 86 86 1752393037
0.807282 0.072565 -2.26781 86 86 86 1752393037
0.807306 0.084661 -2.26788 86 86 86 1752393037
0.80733 0.096759 -2.26794 86 86 86 1752393037
0.807353 0.108857 -2.26801 86 86 86 1752393037
0.807377 0.120955 -2.26807 86 86 86 1752393037
0.807401 0.133055 -2.26814 86 86 86 1752393037
0.807425 0.145155 -2.26821 86 86 86 1752393037
0.807449 0.157256 -2.26828 86 86 86 1752393037
0.807472 0.169357 -2.26834 86 86 86 1752393037
0.807496 0.18146 -2.26841 86 86 86 1752393037
0.80752 0.193563 -2.26848 86 86 86 1752393037
0.807543 0.205666 -2.26854 86 86 86 1752393037
0.807567 0.217771 -2.26861 86 86 86 1752393037
0.807591 0.229876 -2.26868 86 86 86 1752393037
0.807615 0.241982 -2.26874 86 86 86 1752393037
0.807638 0.254088 -2.26881 86 86 86 1752393037
0.807662 0.266196 -2.26887 86 86 86 1752393037
0.807686 0.278304 -2.26894 86 86 86 1752393037
0.807709 0.290412 -2.26901 86 86 86 1752393037
0.807733 0.302522 -2.26907 86 86 86 1752393037
0.807757 0.314632 -2.26914 86 86 86 1752393037
0.807781 0.326743 -2.26921 86 86 86 1752393037
0.807804 0.338854 -2.26927 86 86 86 1752393037
0.807828 0.350966 -2.26934 86 86 86 1752393037
0.807852 0.363079 -2.26941 86 86 86 1752393037
0.807876 0.375193 -2.26947 86 86 86 1752393037
0.807899 0.387308 -2.26954 86 86 86 1752393037
0.807923 0.399423 -2.26961 86 86 86 1752393037
0.807947 0.411538 -2.26968 86 86 86 1752393037
0.807971 0.423655 -2.26974 86 86 86 1752393037
0.807994 0.435772 -2.26981 86 86 86 1752393037
0.808018 0.44789 -2.26988 86 86 86 1752393037
0.808042 0.460009 -2.26994 86 86 86 1752393037
0.808066 0.472128 -2.27001 86 86 86 1752393037
0.808089 0.484248 -2.27008 86 86 86 1752393037
0.808113 0.496369 -2.27014 86 86 86 1752393037
0.808137 0.508491 -2.27021 86 86 86 1752393037
0.808161 0.520613 -2.27028 86 86 86 1752393037
0.808184 0.532736 -2.27034 86 86 86 1752393037
0.808208 0.544859 -2.27041 86 86 86 1752393037
0.808232 0.556984 -2.27048 86 86 86 1752393037
0.808255 0.569109 -2.27054 86 86 86 1752393037
0.808279 0.581235 -2.27061 86 86 86 1752393037
0.808303 0.593361 -2.27068 86 86 86 1752393037
0.808327 0.605488 -2.27074 86 86 86 1752393037
0.808351 0.617616 -2.27081 86 86 86 1752393037
0.808374 0.629745 -2.27088 86 86 86 1752393037
0.808398 0.641874 -2.27094 86 86 86 1752393037
0.808422 0.654004 -2.27101 86 86 86 1752393037
0.808446 0.666135 -2.27108 86 86 86 1752393037
0.808469 0.678266 -2.27114 86 86 86 1752393037
0.808493 0.690399 -2.27121 86 86 86 1752393037
0.808517 0.702532 -2.27128 86 86 86 1752393037
0.808541 0.714665 -2.27134 86 86 86 1752393037
0.808565 0.7268 -2.27141 86 86 86 1752393037
0.808588 0.738935 -2.27148 86 86 86 1752393037
0.808612 0.75107 -2.27154 86 86 86 1752393037
0.808636 0.763207 -2.27161 86 86 86 1752393037
0.80866 0.775344 -2.27168 86 86 86 1752393037
0.808683 0.787482 -2.27174 0 0 0 1752393037
0.808706 0.79962 -2.27181 0 0 0 1752393037
0.808729 0.811758 -2.27187 0 0 0 1752393037
0.808753 0.823898 -2.27194 0 0 0 1752393037
0.808776 0.836038 -2.272 0 0 0 1752393037
0.944209 0.990182 -2.65246 204 182 121 1752393037
0.944209 1.00433 -2.65246 204 182 121 1752393037
0.944209 1.01847 -2.65246 204 182 121 1752393037
0.944209 1.03262 -2.65246 204 182 121 1752393037
0.944209 1.04676 -2.65246 204 182 121 1752393037
0.705108 -0.783453 -1.95877 86 86 86 1752393037
0.705108 -0.773007 -1.95877 86 86 86 1752393037
0.705108 -0.762561 -1.95877 86 86 86 1752393037
0.705108 -0.752115 -1.95877 86 86 86 1752393037
0.705108 -0.741669 -1.95877 86 86 86 1752393037
0.705108 -0.731223 -1.95877 86 86 86 1752393037
0.705108 -0.720777 -1.95877 86 86 86 1752393037
0.705108 -0.710331 -1.95877 86 86 86 1752393037
0.705108 -0.699885 -1.95877 86 86 86 1752393037
0.705108 -0.689439 -1.95877 86 86 86 1752393037
0.705108 -0.678993 -1.95877 86 86 86 1752393037
0.705108 -0.668547 -1.95877 86 86 86 1752393037
0.705108 -0.658101 -1.95877 86 86 86 1752393037
0.705108 -0.647655 -1.95877 86 86 86 1752393037
0.705108 -0.637209 -1.95877 86 86 86 1752393037
0.705108 -0.626763 -1.95877 86 86 86 1752393037
0.705108 -0.616317 -1.95877 86 86 86 1752393037
0.705108 -0.605871 -1.95877 86 86 86 1752393037
0.705108 -0.595425 -1.95877 86 86 86 1752393037
0.705108 -0.584978 -1.95877 86 86 86 1752393037
0.705108 -0.574532 -1.95877 86 86 86 1752393037
0.705108 -0.564086 -1.95877 86 86 86 1752393037
0.705108 -0.55364 -1.95877 86 86 86 1752393037
0.705108 -0.543194 -1.95877 86 86 86 1752393037
0.705108 -0.532748 -1.95877 86 86 86 1752393037
0.705108 -0.522302 -1.95877 86 86 86 1752393037
0.705108 -0.511856 -1.95877 86 86 86 1752393037
0.705108 -0.50141 -1.95877 86 86 86 1752393037
0.705108 -0.490964 -1.95877 86 86 86 1752393037
0.705108 -0.480518 -1.95877 86 86 86 1752393037
0.705108 -0.470072 -1.95877 86 86 86 1752393037
0.705108 -0.459626 -1.95877 86 86 86 1752393037
0.705108 -0.44918 -1.95877 86 86 86 1752393037
0.705108 -0.438734 -1.95877 86 86 86 1752393037
0.705108 -0.428288 -1.95877 86 86 86 1752393037
0.705108 -0.417842 -1.95877 86 86 86 1752393037
0.705108 -0.407396 -1.95877 86 86 86 1752393037
0.705108 -0.39695 -1.95877 86 86 86 1752393037
0.705108 -0.386504 -1.95877 86 86 86 1752393037
0.705108 -0.376058 -1.95877 86 86 86 1752393037
0.705108 -0.365612 -1.95877 86 86 86 1752393037
0.705108 -0.355165 -1.95877 86 86 86 1752393037
0.705108 -0.344719 -1.95877 86 86 86 1752393037
0.705108 -0.334273 -1.95877 86 86 86 1752393037
0.705108 -0.323827 -1.95877 86 86 86 1752393037
0.705108 -0.313381 -1.95877 86 86 86 1752393037
0.705108 -0.302935 -1.95877 86 86 86 1752393037
0.705108 -0.292489 -1.95877 86 86 86 1752393037
0.705108 -0.282043 -1.95877 86 86 86 1752393037
0.705108 -0.271597 -1.95877 86 86 86 1752393037
0.705108 -0.261151 -1.95877 86 86 86 1752393037
0.705108 -0.250705 -1.95877 86 86 86 1752393037
0.705108 -0.240259 -1.95877 86 86 86 1752393037
0.705108 -0.229813 -1.95877 86 86 86 1752393037
0.705108 -0.219367 -1.95877 86 86 86 1752393037
0.705108 -0.208921 -1.95877 86 86 86 1752393037
0.705108 -0.198475 -1.95877 86 86 86 1752393037
0.722888 -0.19277 -2.00817 86 86 86 1752393037
0.778868 -0.196159 -2.16368 86 86 86 1752393037
0.827547 -0.196159 -2.29891 86 86 86 1752393037
0.882717 -0.196159 -2.45217 86 86 86 1752393037
0.957601 -0.198614 -2.66019 204 182 121 1752393037
0.957601 -0.184427 -2.66019 204 182 121 1752393037
0.957601 -0.17024 -2.66019 204 182 121 1752393037
0.957601 -0.156054 -2.66019 204 182 121 1752393037
0.816631 -0.120982 -2.26858 0 0 0 1752393037
0.816655 -0.108887 -2.26865 0 0 0 1752393037
0.816679 -0.096792 -2.26871 0 0 0 1752393037
0.816703 -0.084695 -2.26878 0 0 0 1752393037
0.816727 -0.072598 -2.26885 86 86 86 1752393037
0.816751 -0.0605 -2.26891 86 86 86 1752393037
0.816775 -0.048401 -2.26898 86 86 86 1752393037
0.816799 -0.036302 -2.26905 86 86 86 1752393037
0.816823 -0.024202 -2.26911 86 86 86 1752393037
0.816847 -0.012101 -2.26918 86 86 86 1752393037
0.816871 0 -2.26925 86 86 86 1752393037
0.816895 0.012102 -2.26932 86 86 86 1752393037
0.816919 0.024205 -2.26938 86 86 86 1752393037
0.816943 0.036309 -2.26945 86 86 86 1752393037
0.816967 0.048413 -2.26952 86 86 86 1752393037
0.816991 0.060518 -2.26958 86 86 86 1752393037
0.817015 0.072624 -2.26965 86 86 86 1752393037
0.817039 0.08473 -2.26972 86 86 86 1752393037
0.817063 0.096837 -2.26978 86 86 86 1752393037
0.817087 0.108945 -2.26985 86 86 86 1752393037
0.817111 0.121054 -2.26992 86 86 86 1752393037
0.817135 0.133163 -2.26998 86 86 86 1752393037
0.817159 0.145273 -2.27005 86 86 86 1752393037
0.817183 0.157383 -2.27011 86 86 86 1752393037
0.817207 0.169495 -2.27018 86 86 86 1752393037
0.817231 0.181607 -2.27025 86 86 86 1752393037
0.817255 0.19372 -2.27031 86 86 86 1752393037
0.817279 0.205833 -2.27038 86 86 86 1752393037
0.817303 0.217948 -2.27045 86 86 86 1752393037
0.817327 0.230062 -2.27051 86 86 86 1752393037
0.817351 0.242178 -2.27058 86 86 86 1752393037
0.817375 0.254295 -2.27065 86 86 86 1752393037
0.817399 0.266412 -2.27072 86 86 86 1752393037
0.817423 0.278529 -2.27078 86 86 86 1752393037
0.817447 0.290648 -2.27085 86 86 86 1752393037
0.817472 0.302767 -2.27092 86 86 86 1752393037
0.817496 0.314887 -2.27098 86 86 86 1752393037
0.81752 0.327008 -2.27105 86 86 86 1752393037
0.817544 0.339129 -2.27112 86 86 86 1752393037
0.817568 0.351251 -2.27118 86 86 86 1752393037
0.817592 0.363374 -2.27125 86 86 86 1752393037
0.817616 0.375498 -2.27132 86 86 86 1752393037
0.81764 0.387622 -2.27138 86 86 86 1752393037
0.817664 0.399747 -2.27145 86 86 86 1752393037
0.817688 0.411872 -2.27152 86 86 86 1752393037
0.817712 0.423999 -2.27158 86 86 86 1752393037
0.817736 0.436126 -2.27165 86 86 86 1752393037
0.81776 0.448254 -2.27172 86 86 86 1752393037
0.817784 0.460382 -2.27179 86 86 86 1752393037
0.817808 0.472511 -2.27185 86 86 86 1752393037
0.817832 0.484641 -2.27192 86 86 86 1752393037
0.817856 0.496772 -2.27199 86 86 86 1752393037
0.81788 0.508903 -2.27205 86 86 86 1752393037
0.817904 0.521035 -2.27212 86 86 86 1752393037
0.817928 0.533168 -2.27219 86 86 86 1752393037
0.817952 0.545302 -2.27225 86 86 86 1752393037
0.817977 0.557436 -2.27232 86 86 86 1752393037
0.818001 0.569571 -2.27239 86 86 86 1752393037
0.818025 0.581706 -2.27245 86 86 86 1752393037
0.818049 0.593843 -2.27252 86 86 86 1752393037
0.818073 0.60598 -2.27259 86 86 86 1752393037
0.818097 0.618118 -2.27265 86 86 86 1752393037
0.818121 0.630256 -2.27272 86 86 86 1752393037
0.818145 0.642395 -2.27279 86 86 86 1752393037
0.818169 0.654535 -2.27285 86 86 86 1752393037
0.818193 0.666676 -2.27292 86 86 86 1752393037
0.818217 0.678817 -2.27299 86 86 86 1752393037
0.818241 0.69096 -2.27306 86 86 86 1752393037
0.818265 0.703102 -2.27312 86 86 86 1752393037
0.81829 0.715246 -2.27319 86 86 86 1752393037
0.818314 0.72739 -2.27326 86 86 86 1752393037
0.818338 0.739535 -2.27332 86 86 86 1752393037
0.818362 0.75168 -2.27339 86 86 86 1752393037
0.818386 0.763827 -2.27346 86 86 86 1752393037
0.81841 0.775974 -2.27352 86 86 86 1752393037
0.818434 0.788121 -2.27359 0 0 0 1752393037
0.818457 0.800269 -2.27365 0 0 0 1752393037
0.818481 0.812418 -2.27372 0 0 0 1752393037
0.818504 0.824567 -2.27379 0 0 0 1752393037
0.957601 0.978882 -2.66019 204 182 121 1752393037
0.957602 0.993068 -2.66019 204 182 121 1752393037
0.957602 1.00725 -2.66019 204 182 121 1752393037
0.957601 1.02144 -2.66019 204 182 121 1752393037
0.957602 1.03563 -2.66019 204 182 121 1752393037
0.957601 1.04982 -2.66019 204 182 121 1752393037
0.712278 -0.782723 -1.95695 86 86 86 1752393037
0.712278 -0.772287 -1.95695 86 86 86 1752393037
0.712278 -0.761851 -1.95695 86 86 86 1752393037
0.712278 -0.751414 -1.95695 86 86 86 1752393037
0.712278 -0.740978 -1.95695 86 86 86 1752393037
0.712278 -0.730542 -1.95695 86 86 86 1752393037
0.712278 -0.720105 -1.95695 86 86 86 1752393037
0.712278 -0.709669 -1.95695 86 86 86 1752393037
0.712278 -0.699233 -1.95695 86 86 86 1752393037
0.712278 -0.688797 -1.95695 86 86 86 1752393037
0.712278 -0.67836 -1.95695 86 86 86 1752393037
0.712278 -0.667924 -1.95695 86 86 86 1752393037
0.712278 -0.657488 -1.95695 86 86 86 1752393037
0.712278 -0.647051 -1.95695 86 86 86 1752393037
0.712278 -0.636615 -1.95695 86 86 86 1752393037
0.712278 -0.626179 -1.95695 86 86 86 1752393037
0.712278 -0.615742 -1.95695 86 86 86 1752393037
0.712278 -0.605306 -1.95695 86 86 86 1752393037
0.712278 -0.59487 -1.95695 86 86 86 1752393037
0.712278 -0.584433 -1.95695 86 86 86 1752393037
0.712278 -0.573997 -1.95695 86 86 86 1752393037
0.712278 -0.563561 -1.95695 86 86 86 1752393037
0.712278 -0.553125 -1.95695 86 86 86 1752393037
0.712278 -0.542688 -1.95695 86 86 86 1752393037
0.712278 -0.532252 -1.95695 86 86 86 1752393037
0.712278 -0.521816 -1.95695 86 86 86 1752393037
0.712278 -0.511379 -1.95695 86 86 86 1752393037
0.712278 -0.500943 -1.95695 86 86 86 1752393037
0.712278 -0.490507 -1.95695 86 86 86 1752393037
0.712278 -0.48007 -1.95695 86 86 86 1752393037
0.712278 -0.469634 -1.95695 86 86 86 1752393037
0.712278 -0.459198 -1.95695 86 86 86 1752393037
0.712278 -0.448761 -1.95695 86 86 86 1752393037
0.712278 -0.438325 -1.95695 86 86 86 1752393037
0.712278 -0.427889 -1.95695 86 86 86 1752393037
0.712278 -0.417453 -1.95695 86 86 86 1752393037
0.712278 -0.407016 -1.95695 86 86 86 1752393037
0.712278 -0.39658 -1.95695 86 86 86 1752393037
0.712278 -0.386144 -1.95695 86 86 86 1752393037
0.712278 -0.375707 -1.95695 86 86 86 1752393037
0.712278 -0.365271 -1.95695 86 86 86 1752393037
0.712278 -0.354835 -1.95695 86 86 86 1752393037
0.712278 -0.344398 -1.95695 86 86 86 1752393037
0.712278 -0.333962 -1.95695 86 86 86 1752393037
0.712278 -0.323526 -1.95695 86 86 86 1752393037
0.712278 -0.313089 -1.95695 86 86 86 1752393037
0.712278 -0.302653 -1.95695 86 86 86 1752393037
0.712278 -0.292217 -1.95695 86 86 86 1752393037
0.712278 -0.28178 -1.95695 86 86 86 1752393037
0.712278 -0.271344 -1.95695 86 86 86 1752393037
0.712278 -0.260908 -1.95695 86 86 86 1752393037
0.712278 -0.250472 -1.95695 86 86 86 1752393037
0.712278 -0.240035 -1.95695 86 86 86 1752393037
0.712278 -0.229599 -1.95695 86 86 86 1752393037
0.712278 -0.219163 -1.95695 86 86 86 1752393037
0.712278 -0.208726 -1.95695 86 86 86 1752393037
0.712278 -0.19829 -1.95695 86 86 86 1752393037
0.73092 -0.19277 -2.00817 86 86 86 1752393037
0.787522 -0.196159 -2.16368 86 86 86 1752393037
0.836742 -0.196159 -2.29891 86 86 86 1752393037
0.892525 -0.196159 -2.45217 86 86 86 1752393037
0.971072 -0.199194 -2.66797 204 182 121 1752393037
0.971072 -0.184966 -2.66797 204 182 121 1752393037
0.971072 -0.170738 -2.66797 204 182 121 1752393037
0.971072 -0.15651 -2.66797 204 182 121 1752393037
0.826374 -0.12108 -2.27042 0 0 0 1752393037
0.826399 -0.108976 -2.27049 0 0 0 1752393037
0.826423 -0.09687 -2.27056 0 0 0 1752393037
0.826448 -0.084764 -2.27062 0 0 0 1752393037
0.826472 -0.072657 -2.27069 86 86 86 1752393037
0.826496 -0.060549 -2.27076 86 86 86 1752393037
0.82652 -0.048441 -2.27082 86 86 86 1752393037
0.826545 -0.036332 -2.27089 86 86 86 1752393037
0.826569 -0.024222 -2.27096 86 86 86 1752393037
0.826593 -0.012111 -2.27102 86 86 86 1752393037
0.826618 0 -2.27109 86 86 86 1752393037
0.826642 0.012112 -2.27116 86 86 86 1752393037
0.826666 0.024225 -2.27122 86 86 86 1752393037
0.82669 0.036338 -2.27129 86 86 86 1752393037
0.826715 0.048452 -2.27136 86 86 86 1752393037
0.826739 0.060567 -2.27142 86 86 86 1752393037
0.826763 0.072682 -2.27149 86 86 86 1752393037
0.826788 0.084799 -2.27156 86 86 86 1752393037
0.826812 0.096916 -2.27162 86 86 86 1752393037
0.826836 0.109033 -2.27169 86 86 86 1752393037
0.826861 0.121152 -2.27176 86 86 86 1752393037
0.826885 0.133271 -2.27182 86 86 86 1752393037
0.826909 0.145391 -2.27189 86 86 86 1752393037
0.826934 0.157511 -2.27196 86 86 86 1752393037
0.826958 0.169632 -2.27203 86 86 86 1752393037
0.826982 0.181754 -2.27209 86 86 86 1752393037
0.827007 0.193877 -2.27216 86 86 86 1752393037
0.827031 0.206 -2.27222 86 86 86 1752393037
0.827055 0.218124 -2.27229 86 86 86 1752393037
0.82708 0.230249 -2.27236 86 86 86 1752393037
0.827104 0.242375 -2.27243 86 86 86 1752393037
0.827128 0.254501 -2.27249 86 86 86 1752393037
0.827153 0.266628 -2.27256 86 86 86 1752393037
0.827177 0.278756 -2.27263 86 86 86 1752393037
0.827201 0.290884 -2.27269 86 86 86 1752393037
0.827226 0.303013 -2.27276 86 86 86 1752393037
0.82725 0.315143 -2.27283 86 86 86 1752393037
0.827274 0.327273 -2.27289 86 86 86 1752393037
0.827299 0.339405 -2.27296 86 86 86 1752393037
0.827323 0.351537 -2.27303 86 86 86 1752393037
0.827347 0.363669 -2.27309 86 86 86 1752393037
0.827372 0.375803 -2.27316 86 86 86 1752393037
0.827396 0.387937 -2.27323 86 86 86 1752393037
0.827421 0.400071 -2.27329 86 86 86 1752393037
0.827445 0.412207 -2.27336 86 86 86 1752393037
0.827469 0.424343 -2.27343 86 86 86 1752393037
0.827493 0.43648 -2.2735 86 86 86 1752393037
0.827518 0.448618 -2.27356 86 86 86 1752393037
0.827542 0.460756 -2.27363 86 86 86 1752393037
0.827567 0.472895 -2.2737 86 86 86 1752393037
0.827591 0.485035 -2.27376 86 86 86 1752393037
0.827615 0.497175 -2.27383 86 86 86 1752393037
0.82764 0.509317 -2.2739 86 86 86 1752393037
0.827664 0.521459 -2.27396 86 86 86 1752393037
0.827688 0.533601 -2.27403 86 86 86 1752393037
0.827713 0.545745 -2.2741 86 86 86 1752393037
0.827737 0.557889 -2.27417 86 86 86 1752393037
0.827762 0.570034 -2.27423 86 86 86 1752393037
0.827786 0.582179 -2.2743 86 86 86 1752393037
0.82781 0.594325 -2.27437 86 86 86 1752393037
0.827835 0.606472 -2.27443 86 86 86 1752393037
0.827859 0.61862 -2.2745 86 86 86 1752393037
0.827883 0.630768 -2.27457 86 86 86 1752393037
0.827908 0.642918 -2.27464 86 86 86 1752393037
0.827932 0.655067 -2.2747 86 86 86 1752393037
0.827957 0.667218 -2.27477 86 86 86 1752393037
0.827981 0.679369 -2.27484 86 86 86 1752393037
0.828005 0.691521 -2.2749 86 86 86 1752393037
0.82803 0.703674 -2.27497 86 86 86 1752393037
0.828054 0.715827 -2.27504 86 86 86 1752393037
0.828079 0.727981 -2.2751 86 86 86 1752393037
0.828103 0.740136 -2.27517 86 86 86 1752393037
0.828127 0.752292 -2.27524 86 86 86 1752393037
0.828152 0.764448 -2.27531 86 86 86 1752393037
0.828176 0.776605 -2.27537 86 86 86 1752393037
0.8282 0.788762 -2.27544 0 0 0 1752393037
0.828224 0.80092 -2.2755 0 0 0 1752393037
0.828248 0.813078 -2.27557 0 0 0 1752393037
0.828271 0.825237 -2.27563 0 0 0 1752393037
0.971072 0.981743 -2.66797 204 182 121 1752393037
0.971072 0.995972 -2.66797 204 182 121 1752393037
0.971072 1.0102 -2.66797 204 182 121 1752393037
0.971072 1.02443 -2.66797 204 182 121 1752393037
0.971072 1.03866 -2.66797 204 182 121 1752393037
0.971072 1.05288 -2.66797 204 182 121 1752393037
0.721243 -0.783959 -1.96004 86 86 86 1752393037
0.721243 -0.773507 -1.96004 86 86 86 1752393037
0.721243 -0.763054 -1.96004 86 86 86 1752393037
0.721243 -0.752601 -1.96004 86 86 86 1752393037
0.721243 -0.742148 -1.96004 86 86 86 1752393037
0.721243 -0.731696 -1.96004 86 86 86 1752393037
0.721243 -0.721243 -1.96004 86 86 86 1752393037
0.721243 -0.71079 -1.96004 86 86 86 1752393037
0.721243 -0.700337 -1.96004 86 86 86 1752393037
0.721243 -0.689884 -1.96004 86 86 86 1752393037
0.721243 -0.679432 -1.96004 86 86 86 1752393037
0.721243 -0.668979 -1.96004 86 86 86 1752393037
0.721243 -0.658526 -1.96004 86 86 86 1752393037
0.721243 -0.648073 -1.96004 86 86 86 1752393037
0.721243 -0.63762 -1.96004 86 86 86 1752393037
0.721243 -0.627168 -1.96004 86 86 86 1752393037
0.721243 -0.616715 -1.96004 86 86 86 1752393037
0.721243 -0.606262 -1.96004 86 86 86 1752393037
0.721243 -0.595809 -1.96004 86 86 86 1752393037
0.721243 -0.585356 -1.96004 86 86 86 1752393037
0.721243 -0.574904 -1.96004 86 86 86 1752393037
0.721243 -0.564451 -1.96004 86 86 86 1752393037
0.721243 -0.553998 -1.96004 86 86 86 1752393037
0.721243 -0.543545 -1.96004 86 86 86 1752393037
0.721243 -0.533093 -1.96004 86 86 86 1752393037
0.721243 -0.52264 -1.96004 86 86 86 1752393037
0.721243 -0.512187 -1.96004 86 86 86 1752393037
0.721243 -0.501734 -1.96004 86 86 86 1752393037
0.721243 -0.491281 -1.96004 86 86 86 1752393037
0.721243 -0.480829 -1.96004 86 86 86 1752393037
0.721243 -0.470376 -1.96004 86 86 86 1752393037
0.721243 -0.459923 -1.96004 86 86 86 1752393037
0.721243 -0.44947 -1.96004 86 86 86 1752393037
0.721243 -0.439017 -1.96004 86 86 86 1752393037
0.721243 -0.428565 -1.96004 86 86 86 1752393037
0.721243 -0.418112 -1.96004 86 86 86 1752393037
0.721243 -0.407659 -1.96004 86 86 86 1752393037
0.721243 -0.397206 -1.96004 86 86 86 1752393037
0.721243 -0.386753 -1.96004 86 86 86 1752393037
0.721243 -0.376301 -1.96004 86 86 86 1752393037
0.721243 -0.365848 -1.96004 86 86 86 1752393037
0.721243 -0.355395 -1.96004 86 86 86 1752393037
0.721243 -0.344942 -1.96004 86 86 86 1752393037
0.721243 -0.334489 -1.96004 86 86 86 1752393037
0.721243 -0.324037 -1.96004 86 86 86 1752393037
0.721243 -0.313584 -1.96004 86 86 86 1752393037
0.721243 -0.303131 -1.96004 86 86 86 1752393037
0.721243 -0.292678 -1.96004 86 86 86 1752393037
0.721243 -0.282225 -1.96004 86 86 86 1752393037
0.721243 -0.271773 -1.96004 86 86 86 1752393037
0.721243 -0.26132 -1.96004 86 86 86 1752393037
0.721243 -0.250867 -1.96004 86 86 86 1752393037
0.721243 -0.240414 -1.96004 86 86 86 1752393037
0.721243 -0.229961 -1.96004 86 86 86 1752393037
0.721243 -0.219509 -1.96004 86 86 86 1752393037
0.721243 -0.209056 -1.96004 86 86 86 1752393037
0.721243 -0.198603 -1.96004 86 86 86 1752393037
0.738952 -0.19277 -2.00817 86 86 86 1752393037
