ply
format ascii 1.0
comment PCL generated
obj_info is_cyberware_data 0
obj_info is_mesh 0
obj_info is_warped 0
obj_info is_interlaced 0
obj_info num_cols 30000
obj_info num_rows 1
obj_info echo_rgb_offset_x 0
obj_info echo_rgb_offset_y 0
obj_info echo_rgb_offset_z 0
obj_info echo_rgb_frontfocus 0.0
obj_info echo_rgb_backfocus 0.0
obj_info echo_rgb_pixelsize 0.0
obj_info echo_rgb_centerpixel 0
obj_info echo_frames 1
obj_info echo_lgincr 0.0
element vertex 1004
property float x
property float y
property float z
property uchar red
property uchar green
property uchar blue
property uint label
end_header
0.584561 -0.355321 -2.14927 102 91 80 1752393037
0.585527 -0.344427 -2.15283 102 91 80 1752393037
0.586496 -0.333498 -2.15639 102 91 80 1752393037
0.587468 -0.322531 -2.15996 102 91 80 1752393037
0.588443 -0.311529 -2.16355 102 91 80 1752393037
0.589422 -0.30049 -2.16715 102 91 80 1752393037
0.590404 -0.289414 -2.17076 102 91 80 1752393037
0.591389 -0.278301 -2.17438 102 91 80 1752393037
0.592377 -0.267151 -2.17801 102 91 80 1752393037
0.593369 -0.255963 -2.18166 102 91 80 1752393037
0.594365 -0.244738 -2.18532 102 91 80 1752393037
0.595363 -0.233476 -2.18899 102 91 80 1752393037
0.596365 -0.222175 -2.19268 102 91 80 1752393037
0.59737 -0.210836 -2.19637 102 91 80 1752393037
0.598379 -0.19946 -2.20008 102 91 80 1752393037
0.599391 -0.188044 -2.2038 102 91 80 1752393037
0.600406 -0.17659 -2.20753 102 91 80 1752393037
0.601425 -0.165097 -2.21128 102 91 80 1752393037
0.602447 -0.153565 -2.21504 102 91 80 1752393037
0.603473 -0.141994 -2.21881 102 91 80 1752393037
0.604503 -0.130383 -2.22259 102 91 80 1752393037
0.605536 -0.118732 -2.22639 102 91 80 1752393037
0.606572 -0.107042 -2.2302 102 91 80 1752393037
0.607612 -0.095312 -2.23403 102 91 80 1752393037
0.608655 -0.083541 -2.23786 102 91 80 1752393037
0.609702 -0.07173 -2.24171 102 91 80 1752393037
0.610753 -0.059878 -2.24558 102 91 80 1752393037
0.611808 -0.047985 -2.24945 102 91 80 1752393037
0.790375 -0.046493 -2.906 177 105 42 1752393037
0.790375 -0.030995 -2.906 177 105 42 1752393037
0.790375 -0.015498 -2.906 177 105 42 1752393037
0.790375 0 -2.906 177 105 42 1752393037
0.790375 0.015498 -2.906 177 105 42 1752393037
0.790375 0.030995 -2.906 177 105 42 1752393037
0.790375 0.046493 -2.906 177 105 42 1752393037
0.790375 0.06199 -2.906 177 105 42 1752393037
0.790375 0.077488 -2.906 177 105 42 1752393037
0.790375 0.092985 -2.906 177 105 42 1752393037
0.790375 0.108483 -2.906 177 105 42 1752393037
0.790375 0.12398 -2.906 177 105 42 1752393037
0.790375 0.139478 -2.906 177 105 42 1752393037
0.790375 0.154976 -2.906 177 105 42 1752393037
0.790375 0.170473 -2.906 177 105 42 1752393037
0.790375 0.185971 -2.906 177 105 42 1752393037
0.790375 0.201468 -2.906 177 105 42 1752393037
0.790375 0.216966 -2.906 177 105 42 1752393037
0.790375 0.232463 -2.906 177 105 42 1752393037
0.790375 0.247961 -2.906 177 105 42 1752393037
0.790375 0.263458 -2.906 177 105 42 1752393037
0.790375 0.278956 -2.906 177 105 42 1752393037
0.790375 0.294454 -2.906 177 105 42 1752393037
0.790375 0.309951 -2.906 177 105 42 1752393037
0.790375 0.325449 -2.906 177 105 42 1752393037
0.790375 0.340946 -2.906 177 105 42 1752393037
0.790375 0.356444 -2.906 177 105 42 1752393037
0.790375 0.371941 -2.906 177 105 42 1752393037
0.790375 0.387439 -2.906 177 105 42 1752393037
0.790375 0.402936 -2.906 177 105 42 1752393037
0.790375 0.418434 -2.906 177 105 42 1752393037
0.790375 0.433931 -2.906 177 105 42 1752393037
0.790375 0.449429 -2.906 177 105 42 1752393037
0.790375 0.464927 -2.906 177 105 42 1752393037
0.790375 0.480424 -2.906 177 105 42 1752393037
0.790375 0.495922 -2.906 177 105 42 1752393037
0.790375 0.511419 -2.906 177 105 42 1752393037
0.790375 0.526917 -2.906 177 105 42 1752393037
0.790375 0.542414 -2.906 177 105 42 1752393037
0.790375 0.557912 -2.906 177 105 42 1752393037
0.790375 0.573409 -2.906 177 105 42 1752393037
0.790375 0.588907 -2.906 177 105 42 1752393037
0.790375 0.604405 -2.906 177 105 42 1752393037
0.790375 0.619902 -2.906 177 105 42 1752393037
0.790375 0.6354 -2.906 177 105 42 1752393037
0.790375 0.650897 -2.906 177 105 42 1752393037
0.790375 0.666395 -2.906 177 105 42 1752393037
0.790375 0.681892 -2.906 177 105 42 1752393037
0.790375 0.69739 -2.906 177 105 42 1752393037
0.790375 0.712887 -2.906 177 105 42 1752393037
0.790375 0.728385 -2.906 177 105 42 1752393037
0.790375 0.743883 -2.906 177 105 42 1752393037
0.790375 0.75938 -2.906 177 105 42 1752393037
0.790375 0.774878 -2.906 177 105 42 1752393037
0.790375 0.790375 -2.906 177 105 42 1752393037
0.790375 0.805873 -2.906 177 105 42 1752393037
0.790375 0.82137 -2.906 177 105 42 1752393037
0.790375 0.836868 -2.906 177 105 42 1752393037
0.790375 0.852365 -2.906 177 105 42 1752393037
0.790375 0.867863 -2.906 177 105 42 1752393037
0.790375 0.883361 -2.906 177 105 42 1752393037
0.790375 0.898858 -2.906 177 105 42 1752393037
0.790375 0.914356 -2.906 177 105 42 1752393037
0.790375 0.929853 -2.906 177 105 42 1752393037
0.790375 0.945351 -2.906 177 105 42 1752393037
0.790375 0.960848 -2.906 177 105 42 1752393037
0.790375 0.976346 -2.906 177 105 42 1752393037
0.790375 0.991843 -2.906 177 105 42 1752393037
0.790375 1.00734 -2.906 177 105 42 1752393037
0.790375 1.02284 -2.906 177 105 42 1752393037
0.790375 1.03834 -2.906 177 105 42 1752393037
0.790375 1.05383 -2.906 177 105 42 1752393037
0.790375 1.06933 -2.906 177 105 42 1752393037
0.790375 1.08483 -2.906 177 105 42 1752393037
0.790375 1.10033 -2.906 177 105 42 1752393037
0.790375 1.11582 -2.906 177 105 42 1752393037
0.790375 1.13132 -2.906 177 105 42 1752393037
0.790375 1.14682 -2.906 177 105 42 1752393037
0.454177 -0.658228 -1.64569 102 91 80 1752393037
0.460315 -0.658228 -1.66793 102 91 80 1752393037
0.466621 -0.658228 -1.69078 102 91 80 1752393037
0.473101 -0.658228 -1.71426 102 91 80 1752393037
0.479765 -0.658228 -1.7384 102 91 80 1752393037
0.486619 -0.658228 -1.76324 102 91 80 1752393037
0.493671 -0.658228 -1.78879 102 91 80 1752393037
0.500931 -0.658228 -1.8151 102 91 80 1752393037
0.508407 -0.658228 -1.84219 102 91 80 1752393037
0.516111 -0.658228 -1.8701 102 91 80 1752393037
0.524051 -0.658228 -1.89887 102 91 80 1752393037
0.532239 -0.658228 -1.92854 102 91 80 1752393037
0.540687 -0.658228 -1.95915 102 91 80 1752393037
0.549408 -0.658228 -1.99075 102 91 80 1752393037
0.558415 -0.658228 -2.02339 102 91 80 1752393037
0.567721 -0.658228 -2.05711 102 91 80 1752393037
0.577344 -0.658228 -2.09197 102 91 80 1752393037
0.587298 -0.658228 -2.12804 102 91 80 1752393037
0.588783 -0.648515 -2.13342 102 91 80 1752393037
0.588783 -0.637137 -2.13342 102 91 80 1752393037
0.588783 -0.62576 -2.13342 102 91 80 1752393037
0.588783 -0.614383 -2.13342 102 91 80 1752393037
0.588783 -0.603005 -2.13342 102 91 80 1752393037
0.588783 -0.591627 -2.13342 102 91 80 1752393037
0.588783 -0.58025 -2.13342 102 91 80 1752393037
0.588783 -0.568873 -2.13342 102 91 80 1752393037
0.588783 -0.557495 -2.13342 102 91 80 1752393037
0.588783 -0.546118 -2.13342 102 91 80 1752393037
0.588783 -0.53474 -2.13342 102 91 80 1752393037
0.588783 -0.523363 -2.13342 102 91 80 1752393037
0.588783 -0.511985 -2.13342 102 91 80 1752393037
0.588783 -0.500608 -2.13342 102 91 80 1752393037
0.588783 -0.48923 -2.13342 102 91 80 1752393037
0.588783 -0.477853 -2.13342 102 91 80 1752393037
0.588783 -0.466475 -2.13342 102 91 80 1752393037
0.588783 -0.455098 -2.13342 102 91 80 1752393037
0.588783 -0.44372 -2.13342 102 91 80 1752393037
0.588783 -0.432343 -2.13342 102 91 80 1752393037
0.588783 -0.420966 -2.13342 102 91 80 1752393037
0.588783 -0.409588 -2.13342 102 91 80 1752393037
0.588783 -0.398211 -2.13342 102 91 80 1752393037
0.58968 -0.387423 -2.13668 102 91 80 1752393037
0.590649 -0.376646 -2.14019 102 91 80 1752393037
0.591621 -0.365833 -2.14371 102 91 80 1752393037
0.592596 -0.354985 -2.14724 102 91 80 1752393037
0.593574 -0.344101 -2.15078 102 91 80 1752393037
0.594555 -0.333181 -2.15434 102 91 80 1752393037
0.59554 -0.322224 -2.15791 102 91 80 1752393037
0.596528 -0.311232 -2.16149 102 91 80 1752393037
0.597519 -0.300203 -2.16508 102 91 80 1752393037
0.598513 -0.289137 -2.16868 102 91 80 1752393037
0.599511 -0.278034 -2.1723 102 91 80 1752393037
0.600512 -0.266894 -2.17592 102 91 80 1752393037
0.601517 -0.255717 -2.17956 102 91 80 1752393037
0.602525 -0.244503 -2.18322 102 91 80 1752393037
0.603536 -0.233251 -2.18688 102 91 80 1752393037
0.60455 -0.22196 -2.19056 102 91 80 1752393037
0.605568 -0.210632 -2.19425 102 91 80 1752393037
0.60659 -0.199266 -2.19795 102 91 80 1752393037
0.607615 -0.187862 -2.20166 102 91 80 1752393037
0.608643 -0.176418 -2.20539 102 91 80 1752393037
0.609675 -0.164936 -2.20913 102 91 80 1752393037
0.61071 -0.153415 -2.21288 102 91 80 1752393037
0.611749 -0.141855 -2.21664 102 91 80 1752393037
0.612792 -0.130255 -2.22042 102 91 80 1752393037
0.613838 -0.118616 -2.22421 102 91 80 1752393037
0.614887 -0.106937 -2.22801 102 91 80 1752393037
0.615941 -0.095218 -2.23183 102 91 80 1752393037
0.616997 -0.083459 -2.23566 102 91 80 1752393037
0.618058 -0.071659 -2.2395 102 91 80 1752393037
0.619122 -0.059819 -2.24336 102 91 80 1752393037
0.62019 -0.047937 -2.24722 102 91 80 1752393037
0.801998 -0.046493 -2.906 177 105 42 1752393037
0.801998 -0.030995 -2.906 177 105 42 1752393037
0.801998 -0.015498 -2.906 177 105 42 1752393037
0.801999 0 -2.906 177 105 42 1752393037
0.801998 0.015498 -2.906 177 105 42 1752393037
0.801998 0.030995 -2.906 177 105 42 1752393037
0.801998 0.046493 -2.906 177 105 42 1752393037
0.801999 0.06199 -2.906 177 105 42 1752393037
0.801998 0.077488 -2.906 177 105 42 1752393037
0.801998 0.092985 -2.906 177 105 42 1752393037
0.801998 0.108483 -2.906 177 105 42 1752393037
0.801999 0.12398 -2.906 177 105 42 1752393037
0.801998 0.139478 -2.906 177 105 42 1752393037
0.801998 0.154976 -2.906 177 105 42 1752393037
0.801998 0.170473 -2.906 177 105 42 1752393037
0.801998 0.185971 -2.906 177 105 42 1752393037
0.801998 0.201468 -2.906 177 105 42 1752393037
0.801998 0.216966 -2.906 177 105 42 1752393037
0.801998 0.232463 -2.906 177 105 42 1752393037
0.801998 0.247961 -2.906 177 105 42 1752393037
0.801998 0.263458 -2.906 177 105 42 1752393037
0.801998 0.278956 -2.906 177 105 42 1752393037
0.801998 0.294454 -2.906 177 105 42 1752393037
0.801998 0.309951 -2.906 177 105 42 1752393037
0.801998 0.325449 -2.906 177 105 42 1752393037
0.801998 0.340946 -2.906 177 105 42 1752393037
0.801998 0.356444 -2.906 177 105 42 1752393037
0.801998 0.371941 -2.906 177 105 42 1752393037
0.801998 0.387439 -2.906 177 105 42 1752393037
0.801998 0.402936 -2.906 177 105 42 1752393037
0.801998 0.418434 -2.906 177 105 42 1752393037
0.801998 0.433932 -2.906 177 105 42 1752393037
0.801998 0.449429 -2.906 177 105 42 1752393037
0.801998 0.464927 -2.906 177 105 42 1752393037
0.801998 0.480424 -2.906 177 105 42 1752393037
0.801998 0.495922 -2.906 177 105 42 1752393037
0.801998 0.511419 -2.906 177 105 42 1752393037
0.801998 0.526917 -2.906 177 105 42 1752393037
0.801998 0.542414 -2.906 177 105 42 1752393037
0.801998 0.557912 -2.906 177 105 42 1752393037
0.801998 0.573409 -2.906 177 105 42 1752393037
0.801998 0.588907 -2.906 177 105 42 1752393037
0.801998 0.604405 -2.906 177 105 42 1752393037
0.801998 0.619902 -2.906 177 105 42 1752393037
0.801998 0.6354 -2.906 177 105 42 1752393037
0.801998 0.650897 -2.906 177 105 42 1752393037
0.801998 0.666395 -2.906 177 105 42 1752393037
0.801998 0.681892 -2.906 177 105 42 1752393037
0.801998 0.69739 -2.906 177 105 42 1752393037
0.801998 0.712887 -2.906 177 105 42 1752393037
0.801998 0.728385 -2.906 177 105 42 1752393037
0.801998 0.743883 -2.906 177 105 42 1752393037
0.801998 0.75938 -2.906 177 105 42 1752393037
0.801998 0.774878 -2.906 177 105 42 1752393037
0.801998 0.790375 -2.906 177 105 42 1752393037
0.801998 0.805873 -2.906 177 105 42 1752393037
0.801998 0.82137 -2.906 177 105 42 1752393037
0.801998 0.836868 -2.906 177 105 42 1752393037
0.801998 0.852365 -2.906 177 105 42 1752393037
0.801998 0.867863 -2.906 177 105 42 1752393037
0.801998 0.883361 -2.906 177 105 42 1752393037
0.801998 0.898858 -2.906 177 105 42 1752393037
0.801998 0.914356 -2.906 177 105 42 1752393037
0.801998 0.929853 -2.906 177 105 42 1752393037
0.801998 0.945351 -2.906 177 105 42 1752393037
0.801998 0.960848 -2.906 177 105 42 1752393037
0.801998 0.976346 -2.906 177 105 42 1752393037
0.801998 0.991843 -2.906 177 105 42 1752393037
0.801998 1.00734 -2.906 177 105 42 1752393037
0.801998 1.02284 -2.906 177 105 42 1752393037
0.801998 1.03834 -2.906 177 105 42 1752393037
0.801998 1.05383 -2.906 177 105 42 1752393037
0.801998 1.06933 -2.906 177 105 42 1752393037
0.801998 1.08483 -2.906 177 105 42 1752393037
0.801998 1.10033 -2.906 177 105 42 1752393037
0.801998 1.11582 -2.906 177 105 42 1752393037
0.801998 1.13132 -2.906 177 105 42 1752393037
0.801998 1.14682 -2.906 177 105 42 1752393037
0.46076 -0.658228 -1.64569 102 91 80 1752393037
0.466986 -0.658228 -1.66793 102 91 80 1752393037
0.473383 -0.658228 -1.69078 102 91 80 1752393037
0.479958 -0.658228 -1.71426 102 91 80 1752393037
0.486718 -0.658228 -1.7384 102 91 80 1752393037
0.493671 -0.658228 -1.76324 102 91 80 1752393037
0.500826 -0.658228 -1.78879 102 91 80 1752393037
0.508191 -0.658228 -1.8151 102 91 80 1752393037
0.515776 -0.658228 -1.84219 102 91 80 1752393037
0.52359 -0.658228 -1.8701 102 91 80 1752393037
0.531646 -0.658228 -1.89887 102 91 80 1752393037
0.539953 -0.658228 -1.92854 102 91 80 1752393037
0.548523 -0.658228 -1.95915 102 91 80 1752393037
0.55737 -0.658228 -1.99075 102 91 80 1752393037
0.566508 -0.658228 -2.02339 102 91 80 1752393037
0.575949 -0.658228 -2.05711 102 91 80 1752393037
0.585711 -0.658228 -2.09197 102 91 80 1752393037
0.59581 -0.658228 -2.12804 102 91 80 1752393037
0.596721 -0.647868 -2.1313 102 91 80 1752393037
0.596721 -0.636502 -2.1313 102 91 80 1752393037
0.596721 -0.625136 -2.1313 102 91 80 1752393037
0.596721 -0.61377 -2.1313 102 91 80 1752393037
0.596721 -0.602404 -2.1313 102 91 80 1752393037
0.596721 -0.591038 -2.1313 102 91 80 1752393037
0.596721 -0.579672 -2.1313 102 91 80 1752393037
0.596721 -0.568306 -2.1313 102 91 80 1752393037
0.596721 -0.556939 -2.1313 102 91 80 1752393037
0.596721 -0.545573 -2.1313 102 91 80 1752393037
0.596721 -0.534207 -2.1313 102 91 80 1752393037
0.596721 -0.522841 -2.1313 102 91 80 1752393037
0.596721 -0.511475 -2.1313 102 91 80 1752393037
0.596721 -0.500109 -2.1313 102 91 80 1752393037
0.596721 -0.488743 -2.1313 102 91 80 1752393037
0.596721 -0.477376 -2.1313 102 91 80 1752393037
0.59672 -0.46601 -2.1313 102 91 80 1752393037
0.59672 -0.454644 -2.1313 102 91 80 1752393037
0.596721 -0.443278 -2.1313 102 91 80 1752393037
0.596721 -0.431912 -2.1313 102 91 80 1752393037
0.596721 -0.420546 -2.1313 102 91 80 1752393037
0.596721 -0.40918 -2.1313 102 91 80 1752393037
0.596721 -0.397814 -2.1313 102 91 80 1752393037
0.597663 -0.387058 -2.13467 102 91 80 1752393037
0.598644 -0.376291 -2.13817 102 91 80 1752393037
0.599628 -0.365488 -2.14168 102 91 80 1752393037
0.600615 -0.354649 -2.14521 102 91 80 1752393037
0.601606 -0.343775 -2.14875 102 91 80 1752393037
0.602599 -0.332864 -2.15229 102 91 80 1752393037
0.603596 -0.321918 -2.15585 102 91 80 1752393037
0.604597 -0.310935 -2.15943 102 91 80 1752393037
0.6056 -0.299916 -2.16301 102 91 80 1752393037
0.606607 -0.288861 -2.16661 102 91 80 1752393037
0.607618 -0.277768 -2.17022 102 91 80 1752393037
0.608631 -0.266638 -2.17384 102 91 80 1752393037
0.609648 -0.255472 -2.17747 102 91 80 1752393037
0.610669 -0.244268 -2.18111 102 91 80 1752393037
0.611693 -0.233026 -2.18477 102 91 80 1752393037
0.61272 -0.221746 -2.18844 102 91 80 1752393037
0.613751 -0.210429 -2.19212 102 91 80 1752393037
0.614785 -0.199073 -2.19582 102 91 80 1752393037
0.615823 -0.187679 -2.19952 102 91 80 1752393037
0.616864 -0.176247 -2.20324 102 91 80 1752393037
0.617909 -0.164776 -2.20697 102 91 80 1752393037
0.618957 -0.153266 -2.21072 102 91 80 1752393037
0.620009 -0.141716 -2.21448 102 91 80 1752393037
0.621065 -0.130128 -2.21825 102 91 80 1752393037
0.622124 -0.1185 -2.22203 102 91 80 1752393037
0.623186 -0.106832 -2.22582 102 91 80 1752393037
0.624253 -0.095124 -2.22963 102 91 80 1752393037
0.625323 -0.083376 -2.23345 102 91 80 1752393037
0.626396 -0.071588 -2.23729 102 91 80 1752393037
0.627474 -0.059759 -2.24114 102 91 80 1752393037
0.628555 -0.04789 -2.245 102 91 80 1752393037
0.813622 -0.046493 -2.906 177 105 42 1752393037
0.813622 -0.030995 -2.906 177 105 42 1752393037
0.813622 -0.015498 -2.906 177 105 42 1752393037
0.813622 0 -2.906 177 105 42 1752393037
0.813622 0.015498 -2.906 177 105 42 1752393037
0.813622 0.030995 -2.906 177 105 42 1752393037
0.813622 0.046493 -2.906 177 105 42 1752393037
0.813622 0.06199 -2.906 177 105 42 1752393037
0.813622 0.077488 -2.906 177 105 42 1752393037
0.813622 0.092985 -2.906 177 105 42 1752393037
0.813622 0.108483 -2.906 177 105 42 1752393037
0.813622 0.12398 -2.906 177 105 42 1752393037
0.813622 0.139478 -2.906 177 105 42 1752393037
0.813622 0.154976 -2.906 177 105 42 1752393037
0.813622 0.170473 -2.906 177 105 42 1752393037
0.813622 0.185971 -2.906 177 105 42 1752393037
0.813622 0.201468 -2.906 177 105 42 1752393037
0.813622 0.216966 -2.906 177 105 42 1752393037
0.813622 0.232463 -2.906 177 105 42 1752393037
0.813622 0.247961 -2.906 177 105 42 1752393037
0.813622 0.263458 -2.906 177 105 42 1752393037
0.813621 0.278956 -2.906 177 105 42 1752393037
0.813622 0.294454 -2.906 177 105 42 1752393037
0.813622 0.309951 -2.906 177 105 42 1752393037
0.813622 0.325449 -2.906 177 105 42 1752393037
0.813622 0.340946 -2.906 177 105 42 1752393037
0.813622 0.356444 -2.906 177 105 42 1752393037
0.813622 0.371941 -2.906 177 105 42 1752393037
0.813622 0.387439 -2.906 177 105 42 1752393037
0.813622 0.402936 -2.906 177 105 42 1752393037
0.813622 0.418434 -2.906 177 105 42 1752393037
0.813622 0.433931 -2.906 177 105 42 1752393037
0.813622 0.449429 -2.906 177 105 42 1752393037
0.813622 0.464927 -2.906 177 105 42 1752393037
0.813622 0.480424 -2.906 177 105 42 1752393037
0.813622 0.495922 -2.906 177 105 42 1752393037
0.813622 0.511419 -2.906 177 105 42 1752393037
0.813622 0.526917 -2.906 177 105 42 1752393037
0.813622 0.542414 -2.906 177 105 42 1752393037
0.813622 0.557912 -2.906 177 105 42 1752393037
0.813622 0.573409 -2.906 177 105 42 1752393037
0.813622 0.588907 -2.906 177 105 42 1752393037
0.813622 0.604405 -2.906 177 105 42 1752393037
0.813622 0.619902 -2.906 177 105 42 1752393037
0.813621 0.6354 -2.906 177 105 42 1752393037
0.813622 0.650897 -2.906 177 105 42 1752393037
0.813622 0.666395 -2.906 177 105 42 1752393037
0.813622 0.681892 -2.906 177 105 42 1752393037
0.813622 0.69739 -2.906 177 105 42 1752393037
0.813622 0.712887 -2.906 177 105 42 1752393037
0.813621 0.728385 -2.906 177 105 42 1752393037
0.813622 0.743883 -2.906 177 105 42 1752393037
0.813621 0.75938 -2.906 177 105 42 1752393037
0.813622 0.774878 -2.906 177 105 42 1752393037
0.813622 0.790375 -2.906 177 105 42 1752393037
0.813621 0.805873 -2.906 177 105 42 1752393037
0.813621 0.82137 -2.906 177 105 42 1752393037
0.813621 0.836868 -2.906 177 105 42 1752393037
0.813622 0.852365 -2.906 177 105 42 1752393037
0.813622 0.867863 -2.906 177 105 42 1752393037
0.813621 0.88336 -2.906 177 105 42 1752393037
0.813622 0.898858 -2.906 177 105 42 1752393037
0.813621 0.914355 -2.906 177 105 42 1752393037
0.813622 0.929853 -2.906 177 105 42 1752393037
0.813622 0.945351 -2.906 177 105 42 1752393037
0.813621 0.960848 -2.906 177 105 42 1752393037
0.813621 0.976346 -2.906 177 105 42 1752393037
0.813622 0.991843 -2.906 177 105 42 1752393037
0.813621 1.00734 -2.906 177 105 42 1752393037
0.813622 1.02284 -2.906 177 105 42 1752393037
0.813621 1.03834 -2.906 177 105 42 1752393037
0.813621 1.05383 -2.906 177 105 42 1752393037
0.813621 1.06933 -2.906 177 105 42 1752393037
0.813622 1.08483 -2.906 177 105 42 1752393037
0.813621 1.10033 -2.906 177 105 42 1752393037
0.813621 1.11582 -2.906 177 105 42 1752393037
0.813621 1.13132 -2.906 177 105 42 1752393037
0.813622 1.14682 -2.906 177 105 42 1752393037
0.467342 -0.658228 -1.64569 102 91 80 1752393037
0.473657 -0.658228 -1.66793 102 91 80 1752393037
0.480146 -0.658228 -1.69078 102 91 80 1752393037
0.486815 -0.658228 -1.71426 102 91 80 1752393037
0.493671 -0.658228 -1.7384 102 91 80 1752393037
0.500723 -0.658228 -1.76324 102 91 80 1752393037
0.50798 -0.658228 -1.78879 102 91 80 1752393037
0.515451 -0.658228 -1.8151 102 91 80 1752393037
0.523144 -0.658228 -1.84219 102 91 80 1752393037
0.53107 -0.658228 -1.8701 102 91 80 1752393037
0.539241 -0.658228 -1.89887 102 91 80 1752393037
0.547666 -0.658228 -1.92854 102 91 80 1752393037
0.556359 -0.658228 -1.95915 102 91 80 1752393037
0.565333 -0.658228 -1.99075 102 91 80 1752393037
0.5746 -0.658228 -2.02339 102 91 80 1752393037
0.584177 -0.658228 -2.05711 102 91 80 1752393037
0.594078 -0.658228 -2.09197 102 91 80 1752393037
0.604321 -0.658228 -2.12804 102 91 80 1752393037
0.604643 -0.647223 -2.12917 102 91 80 1752393037
0.604643 -0.635868 -2.12917 102 91 80 1752393037
0.604643 -0.624514 -2.12917 102 91 80 1752393037
0.604643 -0.613159 -2.12917 102 91 80 1752393037
0.604643 -0.601804 -2.12917 102 91 80 1752393037
0.604643 -0.590449 -2.12917 102 91 80 1752393037
0.604643 -0.579094 -2.12917 102 91 80 1752393037
0.604643 -0.567739 -2.12917 102 91 80 1752393037
0.604643 -0.556385 -2.12917 102 91 80 1752393037
0.604643 -0.54503 -2.12917 102 91 80 1752393037
0.604643 -0.533675 -2.12917 102 91 80 1752393037
0.604643 -0.52232 -2.12917 102 91 80 1752393037
0.604642 -0.510965 -2.12917 102 91 80 1752393037
0.604642 -0.499611 -2.12917 102 91 80 1752393037
0.604643 -0.488256 -2.12917 102 91 80 1752393037
0.604642 -0.476901 -2.12917 102 91 80 1752393037
0.604642 -0.465546 -2.12917 102 91 80 1752393037
0.604642 -0.454191 -2.12917 102 91 80 1752393037
0.604642 -0.442837 -2.12917 102 91 80 1752393037
0.604642 -0.431482 -2.12917 102 91 80 1752393037
0.604642 -0.420127 -2.12917 102 91 80 1752393037
0.604642 -0.408772 -2.12917 102 91 80 1752393037
0.604642 -0.397418 -2.12917 102 91 80 1752393037
0.605631 -0.386694 -2.13266 102 91 80 1752393037
0.606624 -0.375936 -2.13615 102 91 80 1752393037
0.60762 -0.365143 -2.13966 102 91 80 1752393037
0.60862 -0.354314 -2.14318 102 91 80 1752393037
0.609622 -0.343449 -2.14671 102 91 80 1752393037
0.610628 -0.332549 -2.15025 102 91 80 1752393037
0.611638 -0.321612 -2.15381 102 91 80 1752393037
0.61265 -0.31064 -2.15737 102 91 80 1752393037
0.613666 -0.299631 -2.16095 102 91 80 1752393037
0.614686 -0.288585 -2.16454 102 91 80 1752393037
0.615709 -0.277502 -2.16814 102 91 80 1752393037
0.616735 -0.266383 -2.17176 102 91 80 1752393037
0.617764 -0.255227 -2.17538 102 91 80 1752393037
0.618797 -0.244033 -2.17902 102 91 80 1752393037
0.619834 -0.232801 -2.18267 102 91 80 1752393037
0.620874 -0.221532 -2.18633 102 91 80 1752393037
0.621917 -0.210226 -2.19001 102 91 80 1752393037
0.622964 -0.198881 -2.19369 102 91 80 1752393037
0.624015 -0.187497 -2.19739 102 91 80 1752393037
0.625069 -0.176076 -2.20111 102 91 80 1752393037
0.626127 -0.164615 -2.20483 102 91 80 1752393037
0.627188 -0.153116 -2.20857 102 91 80 1752393037
0.628253 -0.141578 -2.21232 102 91 80 1752393037
0.629321 -0.130001 -2.21608 102 91 80 1752393037
0.630393 -0.118384 -2.21985 102 91 80 1752393037
0.631469 -0.106727 -2.22364 102 91 80 1752393037
0.632549 -0.095031 -2.22744 102 91 80 1752393037
0.633632 -0.083294 -2.23126 102 91 80 1752393037
0.634719 -0.071518 -2.23508 102 91 80 1752393037
0.635809 -0.0597 -2.23892 102 91 80 1752393037
0.636904 -0.047843 -2.24278 102 91 80 1752393037
0.825245 -0.046493 -2.906 177 105 42 1752393037
0.825245 -0.030995 -2.906 177 105 42 1752393037
0.825245 -0.015498 -2.906 177 105 42 1752393037
0.825245 0 -2.906 177 105 42 1752393037
0.825245 0.015498 -2.906 177 105 42 1752393037
0.825245 0.030995 -2.906 177 105 42 1752393037
0.825245 0.046493 -2.906 177 105 42 1752393037
0.825245 0.06199 -2.906 177 105 42 1752393037
0.825245 0.077488 -2.906 177 105 42 1752393037
0.825245 0.092985 -2.906 177 105 42 1752393037
0.825245 0.108483 -2.906 177 105 42 1752393037
0.825245 0.12398 -2.906 177 105 42 1752393037
0.825245 0.139478 -2.906 177 105 42 1752393037
0.825245 0.154976 -2.906 177 105 42 1752393037
0.825245 0.170473 -2.906 177 105 42 1752393037
0.825245 0.185971 -2.906 177 105 42 1752393037
0.825245 0.201468 -2.906 177 105 42 1752393037
0.825245 0.216966 -2.906 177 105 42 1752393037
0.825245 0.232463 -2.906 177 105 42 1752393037
0.825245 0.247961 -2.906 177 105 42 1752393037
0.825245 0.263458 -2.906 177 105 42 1752393037
0.825245 0.278956 -2.906 177 105 42 1752393037
0.825245 0.294454 -2.906 177 105 42 1752393037
0.825245 0.309951 -2.906 177 105 42 1752393037
0.825245 0.325449 -2.906 177 105 42 1752393037
0.825245 0.340946 -2.906 177 105 42 1752393037
0.825245 0.356444 -2.906 177 105 42 1752393037
0.825245 0.371941 -2.906 177 105 42 1752393037
0.825245 0.387439 -2.906 177 105 42 1752393037
0.825245 0.402936 -2.906 177 105 42 1752393037
0.825245 0.418434 -2.906 177 105 42 1752393037
0.825245 0.433931 -2.906 177 105 42 1752393037
0.825245 0.449429 -2.906 177 105 42 1752393037
0.825245 0.464927 -2.906 177 105 42 1752393037
0.825245 0.480424 -2.906 177 105 42 1752393037
0.825245 0.495922 -2.906 177 105 42 1752393037
0.825245 0.511419 -2.906 177 105 42 1752393037
0.825245 0.526917 -2.906 177 105 42 1752393037
0.825245 0.542414 -2.906 177 105 42 1752393037
0.825245 0.557912 -2.906 177 105 42 1752393037
0.825245 0.57341 -2.906 177 105 42 1752393037
0.825245 0.588907 -2.906 177 105 42 1752393037
0.825245 0.604405 -2.906 177 105 42 1752393037
0.825245 0.619902 -2.906 177 105 42 1752393037
0.825245 0.6354 -2.906 177 105 42 1752393037
0.825245 0.650897 -2.906 177 105 42 1752393037
0.825245 0.666395 -2.906 177 105 42 1752393037
0.825245 0.681892 -2.906 177 105 42 1752393037
0.825245 0.69739 -2.906 177 105 42 1752393037
0.825245 0.712887 -2.906 177 105 42 1752393037
0.825245 0.728385 -2.906 177 105 42 1752393037
0.825245 0.743882 -2.906 177 105 42 1752393037
0.825245 0.75938 -2.906 177 105 42 1752393037
0.825245 0.774878 -2.906 177 105 42 1752393037
0.825245 0.790375 -2.906 177 105 42 1752393037
0.825245 0.805873 -2.906 177 105 42 1752393037
0.825245 0.82137 -2.906 177 105 42 1752393037
0.825245 0.836868 -2.906 177 105 42 1752393037
0.825245 0.852365 -2.906 177 105 42 1752393037
0.825245 0.867863 -2.906 177 105 42 1752393037
0.825245 0.883361 -2.906 177 105 42 1752393037
0.825245 0.898858 -2.906 177 105 42 1752393037
0.825245 0.914356 -2.906 177 105 42 1752393037
0.825245 0.929853 -2.906 177 105 42 1752393037
0.825245 0.945351 -2.906 177 105 42 1752393037
0.825245 0.960848 -2.906 177 105 42 1752393037
0.825245 0.976346 -2.906 177 105 42 1752393037
0.825245 0.991843 -2.906 177 105 42 1752393037
0.825245 1.00734 -2.906 177 105 42 1752393037
0.825245 1.02284 -2.906 177 105 42 1752393037
0.825245 1.03834 -2.906 177 105 42 1752393037
0.825245 1.05383 -2.906 177 105 42 1752393037
0.825245 1.06933 -2.906 177 105 42 1752393037
0.825245 1.08483 -2.906 177 105 42 1752393037
0.825245 1.10033 -2.906 177 105 42 1752393037
0.825245 1.11582 -2.906 177 105 42 1752393037
0.825245 1.13132 -2.906 177 105 42 1752393037
0.825245 1.14682 -2.906 177 105 42 1752393037
0.473924 -0.658228 -1.64569 102 91 80 1752393037
0.480329 -0.658228 -1.66793 102 91 80 1752393037
0.486908 -0.658228 -1.69078 102 91 80 1752393037
0.493671 -0.658228 -1.71426 102 91 80 1752393037
0.500624 -0.658228 -1.7384 102 91 80 1752393037
0.507776 -0.658228 -1.76324 102 91 80 1752393037
0.515135 -0.658228 -1.78879 102 91 80 1752393037
0.522711 -0.658228 -1.8151 102 91 80 1752393037
0.530512 -0.658228 -1.84219 102 91 80 1752393037
0.53855 -0.658228 -1.8701 102 91 80 1752393037
0.546835 -0.658228 -1.89887 102 91 80 1752393037
0.55538 -0.658228 -1.92854 102 91 80 1752393037
0.564195 -0.658228 -1.95915 102 91 80 1752393037
0.573295 -0.658228 -1.99075 102 91 80 1752393037
0.582693 -0.658228 -2.02339 102 91 80 1752393037
0.592405 -0.658228 -2.05711 102 91 80 1752393037
0.602446 -0.658228 -2.09197 102 91 80 1752393037
0.612549 -0.657923 -2.12706 102 91 80 1752393037
0.612549 -0.646579 -2.12706 102 91 80 1752393037
0.612549 -0.635236 -2.12706 102 91 80 1752393037
0.612549 -0.623892 -2.12706 102 91 80 1752393037
0.612549 -0.612549 -2.12706 102 91 80 1752393037
0.612549 -0.601205 -2.12706 102 91 80 1752393037
0.612549 -0.589862 -2.12706 102 91 80 1752393037
0.612549 -0.578518 -2.12706 102 91 80 1752393037
0.612549 -0.567175 -2.12706 102 91 80 1752393037
0.612549 -0.555831 -2.12706 102 91 80 1752393037
0.612548 -0.544488 -2.12706 102 91 80 1752393037
0.612549 -0.533144 -2.12706 102 91 80 1752393037
0.612548 -0.521801 -2.12706 102 91 80 1752393037
0.612549 -0.510457 -2.12706 102 91 80 1752393037
0.612548 -0.499114 -2.12706 102 91 80 1752393037
0.612548 -0.48777 -2.12706 102 91 80 1752393037
0.612548 -0.476427 -2.12706 102 91 80 1752393037
0.612548 -0.465083 -2.12706 102 91 80 1752393037
0.612548 -0.453739 -2.12706 102 91 80 1752393037
0.612548 -0.442396 -2.12706 102 91 80 1752393037
0.612548 -0.431053 -2.12705 102 91 80 1752393037
0.612548 -0.419709 -2.12706 102 91 80 1752393037
0.612548 -0.408366 -2.12706 102 91 80 1752393037
0.612583 -0.397044 -2.12718 102 91 80 1752393037
0.613584 -0.386331 -2.13065 102 91 80 1752393037
0.614589 -0.375582 -2.13414 102 91 80 1752393037
0.615598 -0.364799 -2.13764 102 91 80 1752393037
0.616609 -0.353979 -2.14116 102 91 80 1752393037
0.617624 -0.343124 -2.14468 102 91 80 1752393037
0.618642 -0.332234 -2.14822 102 91 80 1752393037
0.619664 -0.321307 -2.15176 102 91 80 1752393037
0.620689 -0.310344 -2.15532 102 91 80 1752393037
0.621717 -0.299345 -2.15889 102 91 80 1752393037
0.622749 -0.28831 -2.16248 102 91 80 1752393037
0.623784 -0.277237 -2.16607 102 91 80 1752393037
0.624823 -0.266128 -2.16968 102 91 80 1752393037
0.625865 -0.254982 -2.1733 102 91 80 1752393037
0.62691 -0.243798 -2.17693 102 91 80 1752393037
0.627959 -0.232578 -2.18057 102 91 80 1752393037
0.629012 -0.221319 -2.18423 102 91 80 1752393037
0.630068 -0.210023 -2.18789 102 91 80 1752393037
0.631128 -0.198688 -2.19157 102 91 80 1752393037
0.632191 -0.187316 -2.19527 102 91 80 1752393037
0.633258 -0.175905 -2.19897 102 91 80 1752393037
0.634329 -0.164456 -2.20269 102 91 80 1752393037
0.635403 -0.152967 -2.20642 102 91 80 1752393037
0.636481 -0.14144 -2.21016 102 91 80 1752393037
0.637562 -0.129874 -2.21391 102 91 80 1752393037
0.638647 -0.118268 -2.21768 102 91 80 1752393037
0.639736 -0.106623 -2.22146 102 91 80 1752393037
0.640828 -0.094938 -2.22526 102 91 80 1752393037
0.641925 -0.083212 -2.22906 102 91 80 1752393037
0.643025 -0.071447 -2.23288 102 91 80 1752393037
0.644128 -0.059642 -2.23672 102 91 80 1752393037
0.645236 -0.047795 -2.24056 102 91 80 1752393037
0.836868 -0.046493 -2.906 177 105 42 1752393037
0.836868 -0.030995 -2.906 177 105 42 1752393037
0.836868 -0.015498 -2.906 177 105 42 1752393037
0.836868 0 -2.906 177 105 42 1752393037
0.836868 0.015498 -2.906 177 105 42 1752393037
0.836868 0.030995 -2.906 177 105 42 1752393037
0.836868 0.046493 -2.906 177 105 42 1752393037
0.836868 0.06199 -2.906 177 105 42 1752393037
0.836868 0.077488 -2.906 177 105 42 1752393037
0.836868 0.092985 -2.906 177 105 42 1752393037
0.836868 0.108483 -2.906 177 105 42 1752393037
0.836868 0.12398 -2.906 177 105 42 1752393037
0.836868 0.139478 -2.906 177 105 42 1752393037
0.836868 0.154976 -2.906 177 105 42 1752393037
0.836868 0.170473 -2.906 177 105 42 1752393037
0.836868 0.185971 -2.906 177 105 42 1752393037
0.836868 0.201468 -2.906 177 105 42 1752393037
0.836868 0.216966 -2.906 177 105 42 1752393037
0.836868 0.232463 -2.906 177 105 42 1752393037
0.836868 0.247961 -2.906 177 105 42 1752393037
0.836868 0.263458 -2.906 177 105 42 1752393037
0.836868 0.278956 -2.906 177 105 42 1752393037
0.836868 0.294454 -2.906 177 105 42 1752393037
0.836868 0.309951 -2.906 177 105 42 1752393037
0.836868 0.325449 -2.906 177 105 42 1752393037
0.836868 0.340946 -2.906 177 105 42 1752393037
0.836868 0.356444 -2.906 177 105 42 1752393037
0.836868 0.371941 -2.906 177 105 42 1752393037
0.836868 0.387439 -2.906 177 105 42 1752393037
0.836868 0.402936 -2.906 177 105 42 1752393037
0.836868 0.418434 -2.906 177 105 42 1752393037
0.836868 0.433932 -2.906 177 105 42 1752393037
0.836868 0.449429 -2.906 177 105 42 1752393037
0.836868 0.464927 -2.906 177 105 42 1752393037
0.836868 0.480424 -2.906 177 105 42 1752393037
0.836868 0.495922 -2.906 177 105 42 1752393037
0.836868 0.511419 -2.906 177 105 42 1752393037
0.836868 0.526917 -2.906 177 105 42 1752393037
0.836868 0.542414 -2.906 177 105 42 1752393037
0.836868 0.557912 -2.906 177 105 42 1752393037
0.836868 0.573409 -2.906 177 105 42 1752393037
0.836868 0.588907 -2.906 177 105 42 1752393037
0.836868 0.604405 -2.906 177 105 42 1752393037
0.836868 0.619902 -2.906 177 105 42 1752393037
0.836868 0.6354 -2.906 177 105 42 1752393037
0.836868 0.650897 -2.906 177 105 42 1752393037
0.836868 0.666395 -2.906 177 105 42 1752393037
0.836868 0.681892 -2.906 177 105 42 1752393037
0.836868 0.69739 -2.906 177 105 42 1752393037
0.836868 0.712887 -2.906 177 105 42 1752393037
0.836868 0.728385 -2.906 177 105 42 1752393037
0.836868 0.743883 -2.906 177 105 42 1752393037
0.836868 0.75938 -2.906 177 105 42 1752393037
0.836868 0.774878 -2.906 177 105 42 1752393037
0.836868 0.790375 -2.906 177 105 42 1752393037
0.836868 0.805873 -2.906 177 105 42 1752393037
0.836868 0.82137 -2.906 177 105 42 1752393037
0.836868 0.836868 -2.906 177 105 42 1752393037
0.836868 0.852365 -2.906 177 105 42 1752393037
0.836868 0.867863 -2.906 177 105 42 1752393037
0.836868 0.883361 -2.906 177 105 42 1752393037
0.836868 0.898858 -2.906 177 105 42 1752393037
0.836868 0.914356 -2.906 177 105 42 1752393037
0.836868 0.929853 -2.906 177 105 42 1752393037
0.836868 0.945351 -2.906 177 105 42 1752393037
0.836868 0.960848 -2.906 177 105 42 1752393037
0.836868 0.976346 -2.906 177 105 42 1752393037
0.836868 0.991843 -2.906 177 105 42 1752393037
0.836868 1.00734 -2.906 177 105 42 1752393037
0.836868 1.02284 -2.906 177 105 42 1752393037
0.836868 1.03834 -2.906 177 105 42 1752393037
0.836868 1.05383 -2.906 177 105 42 1752393037
0.836868 1.06933 -2.906 177 105 42 1752393037
0.836868 1.08483 -2.906 177 105 42 1752393037
0.836868 1.10033 -2.906 177 105 42 1752393037
0.836868 1.11582 -2.906 177 105 42 1752393037
0.836868 1.13132 -2.906 177 105 42 1752393037
0.836868 1.14682 -2.906 177 105 42 1752393037
0.480507 -0.658228 -1.64569 102 91 80 1752393037
0.487 -0.658228 -1.66793 102 91 80 1752393037
0.493671 -0.658228 -1.69078 102 91 80 1752393037
0.500528 -0.658228 -1.71426 102 91 80 1752393037
0.507577 -0.658228 -1.7384 102 91 80 1752393037
0.514828 -0.658228 -1.76324 102 91 80 1752393037
0.52229 -0.658228 -1.78879 102 91 80 1752393037
0.52997 -0.658228 -1.8151 102 91 80 1752393037
0.53788 -0.658228 -1.84219 102 91 80 1752393037
0.54603 -0.658228 -1.8701 102 91 80 1752393037
0.55443 -0.658228 -1.89887 102 91 80 1752393037
0.563093 -0.658228 -1.92854 102 91 80 1752393037
0.572031 -0.658228 -1.95915 102 91 80 1752393037
0.581258 -0.658228 -1.99075 102 91 80 1752393037
0.590786 -0.658228 -2.02339 102 91 80 1752393037
0.600633 -0.658228 -2.05711 102 91 80 1752393037
0.610813 -0.658228 -2.09197 102 91 80 1752393037
0.620439 -0.657269 -2.12494 102 91 80 1752393037
0.620439 -0.645936 -2.12494 102 91 80 1752393037
0.620439 -0.634604 -2.12494 102 91 80 1752393037
0.620439 -0.623272 -2.12494 102 91 80 1752393037
0.620439 -0.61194 -2.12494 102 91 80 1752393037
0.620439 -0.600608 -2.12494 102 91 80 1752393037
0.620439 -0.589275 -2.12494 102 91 80 1752393037
0.620439 -0.577943 -2.12494 102 91 80 1752393037
0.620439 -0.566611 -2.12494 102 91 80 1752393037
0.620439 -0.555278 -2.12494 102 91 80 1752393037
0.620439 -0.543946 -2.12494 102 91 80 1752393037
0.620439 -0.532614 -2.12494 102 91 80 1752393037
0.620439 -0.521282 -2.12494 102 91 80 1752393037
0.620439 -0.50995 -2.12494 102 91 80 1752393037
0.620439 -0.498617 -2.12494 102 91 80 1752393037
0.620439 -0.487285 -2.12494 102 91 80 1752393037
0.620439 -0.475953 -2.12494 102 91 80 1752393037
0.620439 -0.464621 -2.12494 102 91 80 1752393037
0.620439 -0.453288 -2.12494 102 91 80 1752393037
0.620439 -0.441956 -2.12494 102 91 80 1752393037
0.620439 -0.430624 -2.12494 102 91 80 1752393037
0.620439 -0.419292 -2.12494 102 91 80 1752393037
0.620439 -0.40796 -2.12494 102 91 80 1752393037
0.620509 -0.396672 -2.12518 102 91 80 1752393037
0.621522 -0.385968 -2.12865 102 91 80 1752393037
0.622539 -0.375229 -2.13214 102 91 80 1752393037
0.62356 -0.364455 -2.13563 102 91 80 1752393037
0.624583 -0.353645 -2.13914 102 91 80 1752393037
0.62561 -0.3428 -2.14265 102 91 80 1752393037
0.626641 -0.331919 -2.14618 102 91 80 1752393037
0.627675 -0.321002 -2.14972 102 91 80 1752393037
0.628712 -0.31005 -2.15328 102 91 80 1752393037
0.629752 -0.29906 -2.15684 102 91 80 1752393037
0.630796 -0.288035 -2.16042 102 91 80 1752393037
0.631844 -0.276973 -2.164 102 91 80 1752393037
0.632895 -0.265874 -2.1676 102 91 80 1752393037
0.63395 -0.254738 -2.17122 102 91 80 1752393037
0.635008 -0.243565 -2.17484 102 91 80 1752393037
0.63607 -0.232354 -2.17848 102 91 80 1752393037
0.637135 -0.221106 -2.18212 102 91 80 1752393037
0.638204 -0.20982 -2.18578 102 91 80 1752393037
0.639276 -0.198497 -2.18946 102 91 80 1752393037
0.640352 -0.187135 -2.19314 102 91 80 1752393037
0.641431 -0.175735 -2.19684 102 91 80 1752393037
0.642515 -0.164296 -2.20055 102 91 80 1752393037
0.643602 -0.152819 -2.20427 102 91 80 1752393037
0.644692 -0.141302 -2.20801 102 91 80 1752393037
0.645786 -0.129747 -2.21176 102 91 80 1752393037
0.646884 -0.118152 -2.21552 102 91 80 1752393037
0.647986 -0.106518 -2.21929 102 91 80 1752393037
0.649092 -0.094844 -2.22307 102 91 80 1752393037
0.650201 -0.083131 -2.22688 102 91 80 1752393037
0.651314 -0.071377 -2.23069 102 91 80 1752393037
0.652431 -0.059583 -2.23451 102 91 80 1752393037
0.653552 -0.047748 -2.23835 102 91 80 1752393037
0.875937 -0.047997 -3 102 117 122 1752393037
0.875937 -0.031998 -3 102 117 122 1752393037
0.875937 -0.015999 -3 102 117 122 1752393037
0.875937 0 -3 102 117 122 1752393037
0.875937 0.015999 -3 102 117 122 1752393037
0.875937 0.031998 -3 102 117 122 1752393037
0.875937 0.047997 -3 102 117 122 1752393037
0.875937 0.063995 -3 102 117 122 1752393037
0.875937 0.079994 -3 102 117 122 1752393037
0.875937 0.095993 -3 102 117 122 1752393037
0.875937 0.111992 -3 102 117 122 1752393037
0.875937 0.127991 -3 102 117 122 1752393037
0.875937 0.14399 -3 102 117 122 1752393037
0.875937 0.159989 -3 102 117 122 1752393037
0.875937 0.175987 -3 102 117 122 1752393037
0.875937 0.191986 -3 102 117 122 1752393037
0.875937 0.207985 -3 102 117 122 1752393037
0.875937 0.223984 -3 102 117 122 1752393037
0.875937 0.239983 -3 102 117 122 1752393037
0.875937 0.255982 -3 102 117 122 1752393037
0.875937 0.27198 -3 102 117 122 1752393037
0.875937 0.287979 -3 102 117 122 1752393037
0.875937 0.303978 -3 102 117 122 1752393037
0.875937 0.319977 -3 102 117 122 1752393037
0.875937 0.335976 -3 102 117 122 1752393037
0.875937 0.351975 -3 102 117 122 1752393037
0.875937 0.367974 -3 102 117 122 1752393037
0.875937 0.383972 -3 102 117 122 1752393037
0.875937 0.399971 -3 102 117 122 1752393037
0.875937 0.41597 -3 102 117 122 1752393037
0.875937 0.431969 -3 102 117 122 1752393037
0.875937 0.447968 -3 102 117 122 1752393037
0.875937 0.463967 -3 102 117 122 1752393037
0.875937 0.479966 -3 102 117 122 1752393037
0.875937 0.495964 -3 102 117 122 1752393037
0.875937 0.511963 -3 102 117 122 1752393037
0.875937 0.527962 -3 102 117 122 1752393037
0.875937 0.543961 -3 102 117 122 1752393037
0.875937 0.55996 -3 102 117 122 1752393037
0.875937 0.575959 -3 102 117 122 1752393037
0.875937 0.591958 -3 102 117 122 1752393037
0.875937 0.607956 -3 102 117 122 1752393037
0.875937 0.623955 -3 102 117 122 1752393037
0.875937 0.639954 -3 102 117 122 1752393037
0.875937 0.655953 -3 102 117 122 1752393037
0.875937 0.671952 -3 102 117 122 1752393037
0.875937 0.687951 -3 102 117 122 1752393037
0.875937 0.703949 -3 102 117 122 1752393037
0.875937 0.719948 -3 102 117 122 1752393037
0.875937 0.735947 -3 102 117 122 1752393037
0.875937 0.751946 -3 102 117 122 1752393037
0.875937 0.767945 -3 102 117 122 1752393037
0.875937 0.783944 -3 102 117 122 1752393037
0.875937 0.799943 -3 102 117 122 1752393037
0.875937 0.815941 -3 102 117 122 1752393037
0.875937 0.83194 -3 102 117 122 1752393037
0.875937 0.847939 -3 102 117 122 1752393037
0.875937 0.863938 -3 102 117 122 1752393037
0.875937 0.879937 -3 102 117 122 1752393037
0.875937 0.895936 -3 102 117 122 1752393037
0.875937 0.911935 -3 102 117 122 1752393037
0.875937 0.927933 -3 102 117 122 1752393037
0.875937 0.943932 -3 102 117 122 1752393037
0.875937 0.959931 -3 102 117 122 1752393037
0.875937 0.97593 -3 102 117 122 1752393037
0.875937 0.991929 -3 102 117 122 1752393037
0.875937 1.00793 -3 102 117 122 1752393037
0.875937 1.02393 -3 102 117 122 1752393037
0.875937 1.03992 -3 102 117 122 1752393037
0.875937 1.05592 -3 102 117 122 1752393037
0.875937 1.07192 -3 102 117 122 1752393037
0.875937 1.08792 -3 102 117 122 1752393037
0.875937 1.10392 -3 102 117 122 1752393037
0.875937 1.11992 -3 102 117 122 1752393037
0.875937 1.13592 -3 102 117 122 1752393037
0.875937 1.15192 -3 102 117 122 1752393037
0.875937 1.16792 -3 102 117 122 1752393037
0.875937 1.18392 -3 102 117 122 1752393037
0.487089 -0.658228 -1.64569 102 91 80 1752393037
0.493671 -0.658228 -1.66793 102 91 80 1752393037
0.500434 -0.658228 -1.69078 102 91 80 1752393037
0.507384 -0.658228 -1.71426 102 91 80 1752393037
0.51453 -0.658228 -1.7384 102 91 80 1752393037
0.521881 -0.658228 -1.76324 102 91 80 1752393037
0.529444 -0.658228 -1.78879 102 91 80 1752393037
0.53723 -0.658228 -1.8151 102 91 80 1752393037
0.545249 -0.658228 -1.84219 102 91 80 1752393037
0.55351 -0.658228 -1.8701 102 91 80 1752393037
0.562025 -0.658228 -1.89887 102 91 80 1752393037
0.570807 -0.658228 -1.92854 102 91 80 1752393037
0.579867 -0.658228 -1.95915 102 91 80 1752393037
0.58922 -0.658228 -1.99075 102 91 80 1752393037
0.598879 -0.658228 -2.02339 102 91 80 1752393037
0.608861 -0.658228 -2.05711 102 91 80 1752393037
0.61918 -0.658228 -2.09197 102 91 80 1752393037
0.628314 -0.656616 -2.12283 102 91 80 1752393037
0.628314 -0.645295 -2.12283 102 91 80 1752393037
0.628314 -0.633974 -2.12283 102 91 80 1752393037
0.628314 -0.622653 -2.12283 102 91 80 1752393037
0.628313 -0.611332 -2.12283 102 91 80 1752393037
0.628314 -0.600011 -2.12283 102 91 80 1752393037
0.628314 -0.58869 -2.12283 102 91 80 1752393037
0.628313 -0.577369 -2.12283 102 91 80 1752393037
0.628313 -0.566048 -2.12283 102 91 80 1752393037
0.628313 -0.554727 -2.12283 102 91 80 1752393037
0.628313 -0.543406 -2.12283 102 91 80 1752393037
0.628313 -0.532085 -2.12283 102 91 80 1752393037
0.628313 -0.520764 -2.12283 102 91 80 1752393037
0.628313 -0.509443 -2.12283 102 91 80 1752393037
0.628313 -0.498122 -2.12283 102 91 80 1752393037
0.628313 -0.486801 -2.12283 102 91 80 1752393037
0.628313 -0.47548 -2.12283 102 91 80 1752393037
0.628313 -0.464159 -2.12283 102 91 80 1752393037
0.628313 -0.452838 -2.12283 102 91 80 1752393037
0.628313 -0.441517 -2.12283 102 91 80 1752393037
0.628313 -0.430196 -2.12283 102 91 80 1752393037
0.628313 -0.418876 -2.12283 102 91 80 1752393037
0.628313 -0.407555 -2.12283 102 91 80 1752393037
0.62842 -0.396301 -2.12319 102 91 80 1752393037
0.629445 -0.385606 -2.12666 102 91 80 1752393037
0.630474 -0.374877 -2.13013 102 91 80 1752393037
0.631507 -0.364112 -2.13362 102 91 80 1752393037
0.632542 -0.353312 -2.13712 102 91 80 1752393037
0.633582 -0.342477 -2.14063 102 91 80 1752393037
0.634624 -0.331605 -2.14415 102 91 80 1752393037
0.63567 -0.320698 -2.14769 102 91 80 1752393037
0.63672 -0.309755 -2.15123 102 91 80 1752393037
0.637773 -0.298776 -2.15479 102 91 80 1752393037
0.638829 -0.287761 -2.15836 102 91 80 1752393037
0.639889 -0.276709 -2.16194 102 91 80 1752393037
0.640952 -0.26562 -2.16553 102 91 80 1752393037
0.642019 -0.254494 -2.16914 102 91 80 1752393037
0.64309 -0.243331 -2.17276 102 91 80 1752393037
0.644164 -0.232131 -2.17638 102 91 80 1752393037
0.645242 -0.220894 -2.18003 102 91 80 1752393037
0.646323 -0.209618 -2.18368 102 91 80 1752393037
0.647408 -0.198305 -2.18735 102 91 80 1752393037
0.648497 -0.186954 -2.19102 102 91 80 1752393037
0.649589 -0.175565 -2.19471 102 91 80 1752393037
0.650685 -0.164137 -2.19842 102 91 80 1752393037
0.651784 -0.15267 -2.20213 102 91 80 1752393037
0.652888 -0.141165 -2.20586 102 91 80 1752393037
0.653995 -0.129621 -2.2096 102 91 80 1752393037
0.655106 -0.118037 -2.21335 102 91 80 1752393037
0.65622 -0.106414 -2.21712 102 91 80 1752393037
0.657339 -0.094752 -2.2209 102 91 80 1752393037
0.658461 -0.083049 -2.22469 102 91 80 1752393037
0.659587 -0.071307 -2.22849 102 91 80 1752393037
0.660717 -0.059524 -2.23231 102 91 80 1752393037
0.661851 -0.047701 -2.23614 102 91 80 1752393037
0.887936 -0.047997 -3 102 117 122 1752393037
0.887936 -0.031998 -3 102 117 122 1752393037
0.887936 -0.015999 -3 102 117 122 1752393037
0.887936 0 -3 102 117 122 1752393037
0.887936 0.015999 -3 102 117 122 1752393037
0.887936 0.031998 -3 102 117 122 1752393037
0.887936 0.047997 -3 102 117 122 1752393037
0.887936 0.063995 -3 102 117 122 1752393037
0.887936 0.079994 -3 102 117 122 1752393037
0.887936 0.095993 -3 102 117 122 1752393037
0.887936 0.111992 -3 102 117 122 1752393037
0.887936 0.127991 -3 102 117 122 1752393037
0.887936 0.14399 -3 102 117 122 1752393037
0.887936 0.159989 -3 102 117 122 1752393037
0.887936 0.175987 -3 102 117 122 1752393037
0.887936 0.191986 -3 102 117 122 1752393037
0.887936 0.207985 -3 102 117 122 1752393037
0.887936 0.223984 -3 102 117 122 1752393037
0.887936 0.239983 -3 102 117 122 1752393037
0.887936 0.255982 -3 102 117 122 1752393037
0.887936 0.27198 -3 102 117 122 1752393037
0.887936 0.287979 -3 102 117 122 1752393037
0.887936 0.303978 -3 102 117 122 1752393037
0.887936 0.319977 -3 102 117 122 1752393037
0.887936 0.335976 -3 102 117 122 1752393037
0.887936 0.351975 -3 102 117 122 1752393037
0.887936 0.367974 -3 102 117 122 1752393037
0.887936 0.383972 -3 102 117 122 1752393037
0.887936 0.399971 -3 102 117 122 1752393037
0.887936 0.41597 -3 102 117 122 1752393037
0.887936 0.431969 -3 102 117 122 1752393037
0.887936 0.447968 -3 102 117 122 1752393037
0.887936 0.463967 -3 102 117 122 1752393037
0.887936 0.479966 -3 102 117 122 1752393037
0.887936 0.495964 -3 102 117 122 1752393037
0.887936 0.511963 -3 102 117 122 1752393037
0.887936 0.527962 -3 102 117 122 1752393037
0.887936 0.543961 -3 102 117 122 1752393037
0.887936 0.55996 -3 102 117 122 1752393037
0.887936 0.575959 -3 102 117 122 1752393037
0.887936 0.591958 -3 102 117 122 1752393037
0.887936 0.607956 -3 102 117 122 1752393037
0.887936 0.623955 -3 102 117 122 1752393037
0.887936 0.639954 -3 102 117 122 1752393037
0.887936 0.655953 -3 102 117 122 1752393037
0.887936 0.671952 -3 102 117 122 1752393037
0.887936 0.687951 -3 102 117 122 1752393037
0.887936 0.703949 -3 102 117 122 1752393037
0.887936 0.719948 -3 102 117 122 1752393037
0.887936 0.735947 -3 102 117 122 1752393037
0.887936 0.751946 -3 102 117 122 1752393037
0.887936 0.767945 -3 102 117 122 1752393037
0.887936 0.783944 -3 102 117 122 1752393037
0.887936 0.799943 -3 102 117 122 1752393037
0.887936 0.815941 -3 102 117 122 1752393037
0.887936 0.83194 -3 102 117 122 1752393037
0.887936 0.847939 -3 102 117 122 1752393037
0.887936 0.863938 -3 102 117 122 1752393037
0.887936 0.879937 -3 102 117 122 1752393037
0.887936 0.895936 -3 102 117 122 1752393037
0.887936 0.911935 -3 102 117 122 1752393037
0.887936 0.927933 -3 102 117 122 1752393037
0.887936 0.943932 -3 102 117 122 1752393037
0.887936 0.959931 -3 102 117 122 1752393037
0.887936 0.97593 -3 102 117 122 1752393037
0.887936 0.991929 -3 102 117 122 1752393037
0.887936 1.00793 -3 102 117 122 1752393037
0.887936 1.02393 -3 102 117 122 1752393037
0.887936 1.03992 -3 102 117 122 1752393037
0.887936 1.05592 -3 102 117 122 1752393037
0.887936 1.07192 -3 102 117 122 1752393037
0.887936 1.08792 -3 102 117 122 1752393037
0.887936 1.10392 -3 102 117 122 1752393037
0.887936 1.11992 -3 102 117 122 1752393037
0.887936 1.13592 -3 102 117 122 1752393037
0.887936 1.15192 -3 102 117 122 1752393037
