ply
format ascii 1.0
comment PCL generated
obj_info is_cyberware_data 0
obj_info is_mesh 0
obj_info is_warped 0
obj_info is_interlaced 0
obj_info num_cols 30000
obj_info num_rows 1
obj_info echo_rgb_offset_x 0
obj_info echo_rgb_offset_y 0
obj_info echo_rgb_offset_z 0
obj_info echo_rgb_frontfocus 0.0
obj_info echo_rgb_backfocus 0.0
obj_info echo_rgb_pixelsize 0.0
obj_info echo_rgb_centerpixel 0
obj_info echo_frames 1
obj_info echo_lgincr 0.0
element vertex 969
property float x
property float y
property float z
property uchar red
property uchar green
property uchar blue
property uint label
end_header
0.174934 0.333207 -3.12404 79 115 115 1752393037
0.174934 0.349868 -3.12404 79 115 115 1752393037
0.174934 0.366528 -3.12404 79 115 115 1752393037
0.174934 0.383188 -3.12404 79 115 115 1752393037
0.174934 0.399849 -3.12404 79 115 115 1752393037
0.174934 0.416509 -3.12404 79 115 115 1752393037
0.174934 0.433169 -3.12404 79 115 115 1752393037
0.174934 0.44983 -3.12404 79 115 115 1752393037
0.174934 0.46649 -3.12404 79 115 115 1752393037
0.174934 0.483151 -3.12404 79 115 115 1752393037
0.174934 0.499811 -3.12404 79 115 115 1752393037
0.174934 0.516471 -3.12404 79 115 115 1752393037
0.174934 0.533132 -3.12404 79 115 115 1752393037
0.174934 0.549792 -3.12404 79 115 115 1752393037
0.174934 0.566452 -3.12404 79 115 115 1752393037
0.174934 0.583113 -3.12404 79 115 115 1752393037
0.174934 0.599773 -3.12404 79 115 115 1752393037
0.174934 0.616433 -3.12404 79 115 115 1752393037
0.174934 0.633094 -3.12404 79 115 115 1752393037
0.174934 0.649754 -3.12404 79 115 115 1752393037
0.174934 0.666414 -3.12404 79 115 115 1752393037
0.174934 0.683075 -3.12404 79 115 115 1752393037
0.174934 0.699735 -3.12404 79 115 115 1752393037
0.174934 0.716396 -3.12404 79 115 115 1752393037
0.174934 0.733056 -3.12404 79 115 115 1752393037
0.174934 0.749716 -3.12404 79 115 115 1752393037
0.174934 0.766377 -3.12404 79 115 115 1752393037
0.151329 0.677379 -2.70251 0 128 0 1752393037
0.174934 0.799697 -3.12404 79 115 115 1752393037
0.174934 0.816358 -3.12404 79 115 115 1752393037
0.174934 0.833018 -3.12404 79 115 115 1752393037
0.174934 0.849679 -3.12404 79 115 115 1752393037
0.174934 0.866339 -3.12404 79 115 115 1752393037
0.174934 0.882999 -3.12404 79 115 115 1752393037
0.174934 0.89966 -3.12404 79 115 115 1752393037
0.174934 0.91632 -3.12404 79 115 115 1752393037
0.174934 0.93298 -3.12404 79 115 115 1752393037
0.174934 0.949641 -3.12404 79 115 115 1752393037
0.174934 0.966301 -3.12404 79 115 115 1752393037
0.174934 0.982961 -3.12404 79 115 115 1752393037
0.174934 0.999622 -3.12404 79 115 115 1752393037
0.174934 1.01628 -3.12404 79 115 115 1752393037
0.174934 1.03294 -3.12404 79 115 115 1752393037
0.174934 1.0496 -3.12404 79 115 115 1752393037
0.174934 1.06626 -3.12404 79 115 115 1752393037
0.174934 1.08292 -3.12404 79 115 115 1752393037
0.174934 1.09958 -3.12404 79 115 115 1752393037
0.174934 1.11624 -3.12404 255 255 255 1752393037
0.174934 1.13291 -3.12404 255 255 255 1752393037
0.174934 1.14956 -3.12404 255 255 255 1752393037
0.174934 1.16623 -3.12404 255 255 255 1752393037
0.174934 1.18289 -3.12404 255 255 255 1752393037
0.174934 1.19955 -3.12404 255 255 255 1752393037
0.174934 1.21621 -3.12404 255 255 255 1752393037
0.174934 1.23287 -3.12404 255 255 255 1752393037
0.040144 -0.267627 -0.669114 149 73 28 1752393037
0.040144 -0.264058 -0.669114 149 73 28 1752393037
0.039436 -0.255899 -0.657322 149 73 28 1752393037
0.039436 -0.252394 -0.657322 149 73 28 1752393037
0.039436 -0.248888 -0.657322 149 73 28 1752393037
0.039536 -0.246001 -0.658978 149 73 28 1752393037
0.040109 -0.246001 -0.668528 149 73 28 1752393037
0.040699 -0.246001 -0.678359 149 73 28 1752393037
0.041306 -0.246001 -0.688484 149 73 28 1752393037
0.041932 -0.246001 -0.698916 149 73 28 1752393037
0.042577 -0.246001 -0.709668 149 73 28 1752393037
0.043242 -0.246001 -0.720757 149 73 28 1752393037
0.043929 -0.246001 -0.732198 149 73 28 1752393037
0.044637 -0.246001 -0.744007 149 73 28 1752393037
0.045369 -0.246001 -0.756204 149 73 28 1752393037
0.046125 -0.246001 -0.768808 149 73 28 1752393037
0.046907 -0.246001 -0.781838 149 73 28 1752393037
0.047716 -0.246001 -0.795318 149 73 28 1752393037
0.048553 -0.246001 -0.809271 149 73 28 1752393037
0.04942 -0.246001 -0.823722 149 73 28 1752393037
0.050318 -0.246001 -0.838699 149 73 28 1752393037
0.05125 -0.246001 -0.854231 149 73 28 1752393037
0.052217 -0.246001 -0.870348 149 73 28 1752393037
0.053221 -0.246001 -0.887086 149 73 28 1752393037
0.054265 -0.246001 -0.90448 149 73 28 1752393037
0.05535 -0.246001 -0.92257 149 73 28 1752393037
0.05648 -0.246001 -0.941397 149 73 28 1752393037
0.057656 -0.246001 -0.96101 149 73 28 1752393037
0.058883 -0.246001 -0.981457 149 73 28 1752393037
0.060163 -0.246001 -1.00279 149 73 28 1752393037
0.0615 -0.246001 -1.02508 149 73 28 1752393037
0.062898 -0.246001 -1.04838 149 73 28 1752393037
0.064361 -0.246001 -1.07276 149 73 28 1752393037
0.065893 -0.246001 -1.0983 149 73 28 1752393037
0.0675 -0.246001 -1.12508 149 73 28 1752393037
0.069188 -0.246001 -1.15321 149 73 28 1752393037
0.070962 -0.246001 -1.18278 149 73 28 1752393037
0.072829 -0.246001 -1.21391 149 73 28 1752393037
0.074798 -0.246001 -1.24672 149 73 28 1752393037
0.076875 -0.246001 -1.28135 149 73 28 1752393037
0.079072 -0.246001 -1.31796 149 73 28 1752393037
0.081397 -0.246001 -1.35672 149 73 28 1752393037
0.083864 -0.246001 -1.39783 149 73 28 1752393037
0.086485 -0.246001 -1.44152 149 73 28 1752393037
0.089275 -0.246001 -1.48802 149 73 28 1752393037
0.092251 -0.246001 -1.53762 149 73 28 1752393037
0.168649 -0.43474 -2.81102 177 105 42 1752393037
0.168649 -0.419749 -2.81102 177 105 42 1752393037
0.168649 -0.404758 -2.81102 177 105 42 1752393037
0.168649 -0.389767 -2.81102 177 105 42 1752393037
0.168649 -0.374776 -2.81102 177 105 42 1752393037
0.168649 -0.359785 -2.81102 177 105 42 1752393037
0.168649 -0.344794 -2.81102 177 105 42 1752393037
0.168649 -0.329803 -2.81102 177 105 42 1752393037
0.168649 -0.314812 -2.81102 177 105 42 1752393037
0.168649 -0.299821 -2.81102 177 105 42 1752393037
0.168649 -0.28483 -2.81102 177 105 42 1752393037
0.168649 -0.269839 -2.81102 177 105 42 1752393037
0.168649 -0.254848 -2.81102 177 105 42 1752393037
0.168649 -0.239857 -2.81102 177 105 42 1752393037
0.146475 -0.1953 -2.44142 177 105 42 1752393037
0.146475 -0.18228 -2.44142 177 105 42 1752393037
0.146475 -0.16926 -2.44142 177 105 42 1752393037
0.146475 -0.15624 -2.44142 177 105 42 1752393037
0.146475 -0.14322 -2.44142 177 105 42 1752393037
0.155194 -0.13795 -2.58675 177 105 42 1752393037
0.15677 -0.125416 -2.61302 177 105 42 1752393037
0.15677 -0.111481 -2.61302 177 105 42 1752393037
0.15677 -0.097546 -2.61302 177 105 42 1752393037
0.15677 -0.083611 -2.61302 177 105 42 1752393037
0.15677 -0.069676 -2.61302 177 105 42 1752393037
0.145683 -0.051798 -2.42822 177 105 42 1752393037
0.145683 -0.038849 -2.42822 177 105 42 1752393037
0.158997 -0.028266 -2.65014 177 105 42 1752393037
0.187429 -0.01666 -3.12404 204 182 121 1752393037
0.187429 0 -3.12404 255 255 255 1752393037
0.187429 0.01666 -3.12404 255 255 255 1752393037
0.187429 0.033321 -3.12404 255 255 255 1752393037
0.187429 0.049981 -3.12404 255 255 255 1752393037
0.187429 0.066641 -3.12404 255 255 255 1752393037
0.187429 0.083302 -3.12404 255 255 255 1752393037
0.187429 0.099962 -3.12404 255 255 255 1752393037
0.187429 0.116623 -3.12404 255 255 255 1752393037
0.187429 0.133283 -3.12404 255 255 255 1752393037
0.187429 0.149943 -3.12404 255 255 255 1752393037
0.187429 0.166604 -3.12404 79 115 115 1752393037
0.187429 0.183264 -3.12404 79 115 115 1752393037
0.187429 0.199924 -3.12404 79 115 115 1752393037
0.187429 0.216585 -3.12404 79 115 115 1752393037
0.187429 0.233245 -3.12404 79 115 115 1752393037
0.187429 0.249905 -3.12404 79 115 115 1752393037
0.187429 0.266566 -3.12404 79 115 115 1752393037
0.187429 0.283226 -3.12404 79 115 115 1752393037
0.187429 0.299886 -3.12404 79 115 115 1752393037
0.187429 0.316547 -3.12404 79 115 115 1752393037
0.187429 0.333207 -3.12404 79 115 115 1752393037
0.187429 0.349868 -3.12404 79 115 115 1752393037
0.187429 0.366528 -3.12404 79 115 115 1752393037
0.187429 0.383188 -3.12404 79 115 115 1752393037
0.187429 0.399849 -3.12404 79 115 115 1752393037
0.187429 0.416509 -3.12404 79 115 115 1752393037
0.187429 0.433169 -3.12404 79 115 115 1752393037
0.187429 0.44983 -3.12404 79 115 115 1752393037
0.187429 0.46649 -3.12404 79 115 115 1752393037
0.187429 0.48315 -3.12404 79 115 115 1752393037
0.187429 0.499811 -3.12404 79 115 115 1752393037
0.187429 0.516471 -3.12404 79 115 115 1752393037
0.187429 0.533132 -3.12404 79 115 115 1752393037
0.187429 0.549792 -3.12404 79 115 115 1752393037
0.187429 0.566452 -3.12404 79 115 115 1752393037
0.187429 0.583113 -3.12404 79 115 115 1752393037
0.187429 0.599773 -3.12404 79 115 115 1752393037
0.187429 0.616433 -3.12404 79 115 115 1752393037
0.187429 0.633094 -3.12404 79 115 115 1752393037
0.187429 0.649754 -3.12404 79 115 115 1752393037
0.187429 0.666414 -3.12404 79 115 115 1752393037
0.187429 0.683075 -3.12404 79 115 115 1752393037
0.187429 0.699735 -3.12404 79 115 115 1752393037
0.187429 0.716395 -3.12404 79 115 115 1752393037
0.187429 0.733056 -3.12404 79 115 115 1752393037
0.187429 0.749716 -3.12404 79 115 115 1752393037
0.187429 0.766377 -3.12404 79 115 115 1752393037
0.187429 0.783037 -3.12404 79 115 115 1752393037
0.187429 0.799697 -3.12404 79 115 115 1752393037
0.187429 0.816358 -3.12404 79 115 115 1752393037
0.187429 0.833018 -3.12404 79 115 115 1752393037
0.187429 0.849678 -3.12404 79 115 115 1752393037
0.187429 0.866339 -3.12404 79 115 115 1752393037
0.187429 0.882999 -3.12404 79 115 115 1752393037
0.187429 0.89966 -3.12404 79 115 115 1752393037
0.187429 0.91632 -3.12404 79 115 115 1752393037
0.187429 0.93298 -3.12404 79 115 115 1752393037
0.187429 0.949641 -3.12404 79 115 115 1752393037
0.187429 0.966301 -3.12404 79 115 115 1752393037
0.187429 0.982962 -3.12404 79 115 115 1752393037
0.187429 0.999622 -3.12404 79 115 115 1752393037
0.187429 1.01628 -3.12404 79 115 115 1752393037
0.187429 1.03294 -3.12404 79 115 115 1752393037
0.187429 1.0496 -3.12404 79 115 115 1752393037
0.187429 1.06626 -3.12404 79 115 115 1752393037
0.187429 1.08292 -3.12404 79 115 115 1752393037
0.187429 1.09958 -3.12404 79 115 115 1752393037
0.187429 1.11624 -3.12404 255 255 255 1752393037
0.187429 1.13291 -3.12404 255 255 255 1752393037
0.187429 1.14956 -3.12404 255 255 255 1752393037
0.187429 1.16623 -3.12404 255 255 255 1752393037
0.187429 1.18289 -3.12404 255 255 255 1752393037
0.187429 1.19955 -3.12404 255 255 255 1752393037
0.187429 1.21621 -3.12404 255 255 255 1752393037
0.187429 1.23287 -3.12404 255 255 255 1752393037
0.042843 -0.267769 -0.66947 149 73 28 1752393037
0.042843 -0.264199 -0.66947 149 73 28 1752393037
0.042088 -0.256035 -0.657671 149 73 28 1752393037
0.042088 -0.252528 -0.657671 149 73 28 1752393037
0.042088 -0.24902 -0.657671 149 73 28 1752393037
0.042172 -0.246001 -0.658978 149 73 28 1752393037
0.042783 -0.246001 -0.668528 149 73 28 1752393037
0.043412 -0.246001 -0.678359 149 73 28 1752393037
0.04406 -0.246001 -0.688484 149 73 28 1752393037
0.044727 -0.246001 -0.698916 149 73 28 1752393037
0.045416 -0.246001 -0.709668 149 73 28 1752393037
0.046125 -0.246001 -0.720757 149 73 28 1752393037
0.046857 -0.246001 -0.732198 149 73 28 1752393037
0.047613 -0.246001 -0.744007 149 73 28 1752393037
0.048394 -0.246001 -0.756204 149 73 28 1752393037
0.0492 -0.246001 -0.768808 149 73 28 1752393037
0.050034 -0.246001 -0.781838 149 73 28 1752393037
0.050897 -0.246001 -0.795318 149 73 28 1752393037
0.05179 -0.246001 -0.809271 149 73 28 1752393037
0.052714 -0.246001 -0.823722 149 73 28 1752393037
0.053673 -0.246001 -0.838699 149 73 28 1752393037
0.054667 -0.246001 -0.854231 149 73 28 1752393037
0.055698 -0.246001 -0.870348 149 73 28 1752393037
0.056769 -0.246001 -0.887086 149 73 28 1752393037
0.057883 -0.246001 -0.90448 149 73 28 1752393037
0.05904 -0.246001 -0.922569 149 73 28 1752393037
0.060245 -0.246001 -0.941398 149 73 28 1752393037
0.0615 -0.246001 -0.96101 149 73 28 1752393037
0.062809 -0.246001 -0.981457 149 73 28 1752393037
0.064174 -0.246001 -1.00279 149 73 28 1752393037
0.0656 -0.246001 -1.02508 149 73 28 1752393037
0.067091 -0.246001 -1.04838 149 73 28 1752393037
0.068651 -0.246001 -1.07276 149 73 28 1752393037
0.070286 -0.246001 -1.0983 149 73 28 1752393037
0.072 -0.246001 -1.12508 149 73 28 1752393037
0.0738 -0.246001 -1.15321 149 73 28 1752393037
0.075693 -0.246001 -1.18278 149 73 28 1752393037
0.077685 -0.246001 -1.21391 149 73 28 1752393037
0.079784 -0.246001 -1.24672 149 73 28 1752393037
0.082 -0.246001 -1.28135 149 73 28 1752393037
0.084343 -0.246001 -1.31796 149 73 28 1752393037
0.086824 -0.246001 -1.35672 149 73 28 1752393037
0.089455 -0.246001 -1.39783 149 73 28 1752393037
0.092251 -0.246001 -1.44152 149 73 28 1752393037
0.095226 -0.246001 -1.48802 149 73 28 1752393037
0.098401 -0.246001 -1.53762 149 73 28 1752393037
0.179892 -0.43474 -2.81102 177 105 42 1752393037
0.179892 -0.419749 -2.81102 177 105 42 1752393037
0.179892 -0.404758 -2.81102 177 105 42 1752393037
0.179892 -0.389767 -2.81102 177 105 42 1752393037
0.179892 -0.374776 -2.81102 177 105 42 1752393037
0.179892 -0.359785 -2.81102 177 105 42 1752393037
0.179892 -0.344794 -2.81102 177 105 42 1752393037
0.179892 -0.329803 -2.81102 177 105 42 1752393037
0.179892 -0.314812 -2.81102 177 105 42 1752393037
0.179892 -0.299821 -2.81102 177 105 42 1752393037
0.179892 -0.28483 -2.81102 177 105 42 1752393037
0.179892 -0.269839 -2.81102 177 105 42 1752393037
0.179892 -0.254848 -2.81102 177 105 42 1752393037
0.179892 -0.239857 -2.81102 177 105 42 1752393037
0.15624 -0.1953 -2.44142 177 105 42 1752393037
0.15624 -0.18228 -2.44142 177 105 42 1752393037
0.15624 -0.16926 -2.44142 177 105 42 1752393037
0.15624 -0.15624 -2.44142 177 105 42 1752393037
0.15624 -0.14322 -2.44142 177 105 42 1752393037
0.16554 -0.13795 -2.58675 177 105 42 1752393037
0.167221 -0.125416 -2.61302 177 105 42 1752393037
0.167221 -0.111481 -2.61302 177 105 42 1752393037
0.167221 -0.097546 -2.61302 177 105 42 1752393037
0.167221 -0.083611 -2.61302 177 105 42 1752393037
0.167221 -0.069676 -2.61302 177 105 42 1752393037
0.155395 -0.051798 -2.42822 177 105 42 1752393037
0.155395 -0.038849 -2.42822 177 105 42 1752393037
0.169597 -0.028266 -2.65014 177 105 42 1752393037
0.199924 -0.01666 -3.12404 204 182 121 1752393037
0.199924 0 -3.12404 255 255 255 1752393037
0.199924 0.01666 -3.12404 255 255 255 1752393037
0.199924 0.033321 -3.12404 255 255 255 1752393037
0.199924 0.049981 -3.12404 255 255 255 1752393037
0.199924 0.066641 -3.12404 255 255 255 1752393037
0.199924 0.083302 -3.12404 255 255 255 1752393037
0.199924 0.099962 -3.12404 255 255 255 1752393037
0.199924 0.116623 -3.12404 255 255 255 1752393037
0.199924 0.133283 -3.12404 255 255 255 1752393037
0.199924 0.149943 -3.12404 255 255 255 1752393037
0.199924 0.166604 -3.12404 79 115 115 1752393037
0.199924 0.183264 -3.12404 79 115 115 1752393037
0.199924 0.199924 -3.12404 79 115 115 1752393037
0.199924 0.216585 -3.12404 79 115 115 1752393037
0.199924 0.233245 -3.12404 79 115 115 1752393037
0.199924 0.249905 -3.12404 79 115 115 1752393037
0.199924 0.266566 -3.12404 79 115 115 1752393037
0.199924 0.283226 -3.12404 79 115 115 1752393037
0.199924 0.299886 -3.12404 79 115 115 1752393037
0.199924 0.316547 -3.12404 79 115 115 1752393037
0.199924 0.333207 -3.12404 79 115 115 1752393037
0.199924 0.349868 -3.12404 79 115 115 1752393037
0.199924 0.366528 -3.12404 79 115 115 1752393037
0.199924 0.383188 -3.12404 79 115 115 1752393037
0.199924 0.399849 -3.12404 79 115 115 1752393037
0.199924 0.416509 -3.12404 79 115 115 1752393037
0.199924 0.433169 -3.12404 79 115 115 1752393037
0.199924 0.44983 -3.12404 79 115 115 1752393037
0.199924 0.46649 -3.12404 79 115 115 1752393037
0.199924 0.48315 -3.12404 79 115 115 1752393037
0.199924 0.499811 -3.12404 79 115 115 1752393037
0.199924 0.516471 -3.12404 79 115 115 1752393037
0.199924 0.533132 -3.12404 79 115 115 1752393037
0.199924 0.549792 -3.12404 79 115 115 1752393037
0.199924 0.566452 -3.12404 79 115 115 1752393037
0.199924 0.583113 -3.12404 79 115 115 1752393037
0.199924 0.599773 -3.12404 79 115 115 1752393037
0.199924 0.616433 -3.12404 79 115 115 1752393037
0.199924 0.633094 -3.12404 79 115 115 1752393037
0.199924 0.649754 -3.12404 79 115 115 1752393037
0.199924 0.666414 -3.12404 79 115 115 1752393037
0.199924 0.683075 -3.12404 79 115 115 1752393037
0.199924 0.699735 -3.12404 79 115 115 1752393037
0.199924 0.716396 -3.12404 79 115 115 1752393037
0.199924 0.733056 -3.12404 79 115 115 1752393037
0.199924 0.749716 -3.12404 79 115 115 1752393037
0.173534 0.665212 -2.71166 0 128 0 1752393037
0.199924 0.783037 -3.12404 79 115 115 1752393037
0.199924 0.799697 -3.12404 79 115 115 1752393037
0.199924 0.816358 -3.12404 79 115 115 1752393037
0.199924 0.833018 -3.12404 79 115 115 1752393037
0.199924 0.849679 -3.12404 79 115 115 1752393037
0.199924 0.866339 -3.12404 79 115 115 1752393037
0.199924 0.882999 -3.12404 79 115 115 1752393037
0.199924 0.89966 -3.12404 79 115 115 1752393037
0.199924 0.91632 -3.12404 79 115 115 1752393037
0.199924 0.93298 -3.12404 79 115 115 1752393037
0.199924 0.949641 -3.12404 79 115 115 1752393037
0.199924 0.966301 -3.12404 79 115 115 1752393037
0.199924 0.982961 -3.12404 79 115 115 1752393037
0.199924 0.999622 -3.12404 79 115 115 1752393037
0.199924 1.01628 -3.12404 79 115 115 1752393037
0.199924 1.03294 -3.12404 79 115 115 1752393037
0.199924 1.0496 -3.12404 79 115 115 1752393037
0.199924 1.06626 -3.12404 79 115 115 1752393037
0.199924 1.08292 -3.12404 79 115 115 1752393037
0.199924 1.09958 -3.12404 79 115 115 1752393037
0.199924 1.11624 -3.12404 255 255 255 1752393037
0.199924 1.13291 -3.12404 255 255 255 1752393037
0.199924 1.14956 -3.12404 255 255 255 1752393037
0.199924 1.16623 -3.12404 255 255 255 1752393037
0.199924 1.18289 -3.12404 255 255 255 1752393037
0.199924 1.19955 -3.12404 255 255 255 1752393037
0.199924 1.21621 -3.12404 255 255 255 1752393037
0.199924 1.23287 -3.12404 255 255 255 1752393037
0.045545 -0.267911 -0.669825 149 73 28 1752393037
0.045545 -0.264339 -0.669825 149 73 28 1752393037
0.044742 -0.256171 -0.65802 149 73 28 1752393037
0.044742 -0.252662 -0.65802 149 73 28 1752393037
0.044742 -0.249153 -0.65802 149 73 28 1752393037
0.044807 -0.246001 -0.658978 149 73 28 1752393037
0.045457 -0.246001 -0.668528 149 73 28 1752393037
0.046125 -0.246001 -0.678359 149 73 28 1752393037
0.046814 -0.246001 -0.688484 149 73 28 1752393037
0.047523 -0.246001 -0.698916 149 73 28 1752393037
0.048254 -0.246001 -0.709668 149 73 28 1752393037
0.049008 -0.246001 -0.720757 149 73 28 1752393037
0.049786 -0.246001 -0.732197 149 73 28 1752393037
0.050589 -0.246001 -0.744007 149 73 28 1752393037
0.051418 -0.246001 -0.756204 149 73 28 1752393037
0.052275 -0.246001 -0.768808 149 73 28 1752393037
0.053161 -0.246001 -0.781838 149 73 28 1752393037
0.054078 -0.246001 -0.795318 149 73 28 1752393037
0.055027 -0.246001 -0.809271 149 73 28 1752393037
0.056009 -0.246001 -0.823722 149 73 28 1752393037
0.057027 -0.246001 -0.838699 149 73 28 1752393037
0.058084 -0.246001 -0.854231 149 73 28 1752393037
0.059179 -0.246001 -0.870348 149 73 28 1752393037
0.060318 -0.246001 -0.887086 149 73 28 1752393037
0.0615 -0.246001 -0.90448 149 73 28 1752393037
0.06273 -0.246001 -0.922569 149 73 28 1752393037
0.06401 -0.246001 -0.941397 149 73 28 1752393037
0.065344 -0.246001 -0.96101 149 73 28 1752393037
0.066734 -0.246001 -0.981457 149 73 28 1752393037
0.068185 -0.246001 -1.00279 149 73 28 1752393037
0.0697 -0.246001 -1.02508 149 73 28 1752393037
0.071284 -0.246001 -1.04838 149 73 28 1752393037
0.072942 -0.246001 -1.07276 149 73 28 1752393037
0.074679 -0.246001 -1.0983 149 73 28 1752393037
0.0765 -0.246001 -1.12509 149 73 28 1752393037
0.078413 -0.246001 -1.15321 149 73 28 1752393037
0.080423 -0.246001 -1.18278 149 73 28 1752393037
0.08254 -0.246001 -1.21391 149 73 28 1752393037
0.084771 -0.246001 -1.24672 149 73 28 1752393037
0.087125 -0.246001 -1.28135 149 73 28 1752393037
0.089615 -0.246001 -1.31796 149 73 28 1752393037
0.09225 -0.246001 -1.35672 149 73 28 1752393037
0.095046 -0.246001 -1.39783 149 73 28 1752393037
0.098016 -0.246001 -1.44152 149 73 28 1752393037
0.101178 -0.246001 -1.48802 149 73 28 1752393037
0.104551 -0.246001 -1.53762 149 73 28 1752393037
0.191136 -0.43474 -2.81102 177 105 42 1752393037
0.191136 -0.419749 -2.81102 177 105 42 1752393037
0.191136 -0.404758 -2.81102 177 105 42 1752393037
0.191136 -0.389767 -2.81102 177 105 42 1752393037
0.191136 -0.374776 -2.81102 177 105 42 1752393037
0.191136 -0.359785 -2.81102 177 105 42 1752393037
0.191136 -0.344794 -2.81102 177 105 42 1752393037
0.191136 -0.329803 -2.81102 177 105 42 1752393037
0.191136 -0.314812 -2.81102 177 105 42 1752393037
0.191136 -0.299821 -2.81102 177 105 42 1752393037
0.191136 -0.28483 -2.81102 177 105 42 1752393037
0.191136 -0.269839 -2.81102 177 105 42 1752393037
0.191136 -0.254848 -2.81102 177 105 42 1752393037
0.191136 -0.239857 -2.81102 177 105 42 1752393037
0.166005 -0.1953 -2.44142 177 105 42 1752393037
0.166005 -0.18228 -2.44142 177 105 42 1752393037
0.166005 -0.16926 -2.44142 177 105 42 1752393037
0.166005 -0.15624 -2.44142 177 105 42 1752393037
0.166005 -0.14322 -2.44142 177 105 42 1752393037
0.175886 -0.13795 -2.58675 177 105 42 1752393037
0.177673 -0.125416 -2.61302 177 105 42 1752393037
0.177673 -0.111481 -2.61302 177 105 42 1752393037
0.177673 -0.097546 -2.61302 177 105 42 1752393037
0.177673 -0.083611 -2.61302 177 105 42 1752393037
0.177673 -0.069676 -2.61302 177 105 42 1752393037
0.165107 -0.051798 -2.42822 177 105 42 1752393037
0.165107 -0.038849 -2.42822 177 105 42 1752393037
0.180197 -0.028266 -2.65014 177 105 42 1752393037
0.21242 -0.01666 -3.12404 204 182 121 1752393037
0.21242 0 -3.12404 255 255 255 1752393037
0.21242 0.01666 -3.12404 255 255 255 1752393037
0.21242 0.033321 -3.12404 255 255 255 1752393037
0.21242 0.049981 -3.12404 255 255 255 1752393037
0.21242 0.066641 -3.12404 255 255 255 1752393037
0.21242 0.083302 -3.12404 255 255 255 1752393037
0.21242 0.099962 -3.12404 255 255 255 1752393037
0.21242 0.116623 -3.12404 255 255 255 1752393037
0.21242 0.133283 -3.12404 255 255 255 1752393037
0.21242 0.149943 -3.12404 255 255 255 1752393037
0.21242 0.166604 -3.12404 79 115 115 1752393037
0.21242 0.183264 -3.12404 79 115 115 1752393037
0.21242 0.199924 -3.12404 79 115 115 1752393037
0.21242 0.216585 -3.12404 79 115 115 1752393037
0.21242 0.233245 -3.12404 79 115 115 1752393037
0.21242 0.249905 -3.12404 79 115 115 1752393037
0.21242 0.266566 -3.12404 79 115 115 1752393037
0.21242 0.283226 -3.12404 79 115 115 1752393037
0.21242 0.299886 -3.12404 79 115 115 1752393037
0.21242 0.316547 -3.12404 79 115 115 1752393037
0.21242 0.333207 -3.12404 79 115 115 1752393037
0.21242 0.349868 -3.12404 79 115 115 1752393037
0.21242 0.366528 -3.12404 79 115 115 1752393037
0.21242 0.383188 -3.12404 79 115 115 1752393037
0.21242 0.399849 -3.12404 79 115 115 1752393037
0.21242 0.416509 -3.12404 79 115 115 1752393037
0.21242 0.433169 -3.12404 79 115 115 1752393037
0.21242 0.44983 -3.12404 79 115 115 1752393037
0.21242 0.46649 -3.12404 79 115 115 1752393037
0.21242 0.48315 -3.12404 79 115 115 1752393037
0.21242 0.499811 -3.12404 79 115 115 1752393037
0.21242 0.516471 -3.12404 79 115 115 1752393037
0.21242 0.533132 -3.12404 79 115 115 1752393037
0.21242 0.549792 -3.12404 79 115 115 1752393037
0.21242 0.566452 -3.12404 79 115 115 1752393037
0.21242 0.583113 -3.12404 79 115 115 1752393037
0.21242 0.599773 -3.12404 79 115 115 1752393037
0.21242 0.616434 -3.12404 79 115 115 1752393037
0.21242 0.633094 -3.12404 79 115 115 1752393037
0.21242 0.649754 -3.12404 79 115 115 1752393037
0.21242 0.666414 -3.12404 79 115 115 1752393037
0.21242 0.683075 -3.12404 79 115 115 1752393037
0.21242 0.699735 -3.12404 79 115 115 1752393037
0.21242 0.716396 -3.12404 79 115 115 1752393037
0.184065 0.635205 -2.70703 0 128 0 1752393037
0.184188 0.650076 -2.70884 0 128 0 1752393037
0.21242 0.766377 -3.12404 79 115 115 1752393037
0.21242 0.783037 -3.12404 79 115 115 1752393037
0.21242 0.799697 -3.12404 79 115 115 1752393037
0.21242 0.816358 -3.12404 79 115 115 1752393037
0.21242 0.833018 -3.12404 79 115 115 1752393037
0.21242 0.849679 -3.12404 79 115 115 1752393037
0.21242 0.866339 -3.12404 79 115 115 1752393037
0.21242 0.882999 -3.12404 79 115 115 1752393037
0.21242 0.89966 -3.12404 79 115 115 1752393037
0.21242 0.91632 -3.12404 79 115 115 1752393037
0.21242 0.93298 -3.12404 79 115 115 1752393037
0.21242 0.949641 -3.12404 79 115 115 1752393037
0.21242 0.966301 -3.12404 79 115 115 1752393037
0.21242 0.982961 -3.12404 79 115 115 1752393037
0.21242 0.999622 -3.12404 79 115 115 1752393037
0.21242 1.01628 -3.12404 79 115 115 1752393037
0.21242 1.03294 -3.12404 79 115 115 1752393037
0.21242 1.0496 -3.12404 79 115 115 1752393037
0.21242 1.06626 -3.12404 79 115 115 1752393037
0.21242 1.08292 -3.12404 79 115 115 1752393037
0.21242 1.09958 -3.12404 79 115 115 1752393037
0.21242 1.11625 -3.12404 255 255 255 1752393037
0.21242 1.13291 -3.12404 255 255 255 1752393037
0.21242 1.14956 -3.12404 255 255 255 1752393037
0.21242 1.16623 -3.12404 255 255 255 1752393037
0.21242 1.18289 -3.12404 255 255 255 1752393037
0.21242 1.19955 -3.12404 255 255 255 1752393037
0.21242 1.21621 -3.12404 255 255 255 1752393037
0.21242 1.23287 -3.12404 255 255 255 1752393037
0.04825 -0.268054 -0.670182 149 73 28 1752393037
0.04825 -0.264479 -0.670182 149 73 28 1752393037
0.047399 -0.256307 -0.65837 149 73 28 1752393037
0.047399 -0.252796 -0.65837 149 73 28 1752393037
0.047399 -0.249285 -0.65837 149 73 28 1752393037
0.047443 -0.246001 -0.658978 149 73 28 1752393037
0.048131 -0.246001 -0.668528 149 73 28 1752393037
0.048838 -0.246001 -0.678359 149 73 28 1752393037
0.049567 -0.246001 -0.688484 149 73 28 1752393037
0.050318 -0.246001 -0.698916 149 73 28 1752393037
0.051092 -0.246001 -0.709668 149 73 28 1752393037
0.051891 -0.246001 -0.720757 149 73 28 1752393037
0.052714 -0.246001 -0.732197 149 73 28 1752393037
0.053565 -0.246001 -0.744007 149 73 28 1752393037
0.054443 -0.246001 -0.756204 149 73 28 1752393037
0.05535 -0.246001 -0.768808 149 73 28 1752393037
0.056288 -0.246001 -0.781838 149 73 28 1752393037
0.057259 -0.246001 -0.795318 149 73 28 1752393037
0.058263 -0.246001 -0.809271 149 73 28 1752393037
0.059304 -0.246001 -0.823722 149 73 28 1752393037
0.060382 -0.246001 -0.838699 149 73 28 1752393037
0.0615 -0.246001 -0.854231 149 73 28 1752393037
0.062661 -0.246001 -0.870348 149 73 28 1752393037
0.063866 -0.246001 -0.887086 149 73 28 1752393037
0.065118 -0.246001 -0.90448 149 73 28 1752393037
0.06642 -0.246001 -0.922569 149 73 28 1752393037
0.067776 -0.246001 -0.941397 149 73 28 1752393037
0.069188 -0.246001 -0.96101 149 73 28 1752393037
0.07066 -0.246001 -0.981457 149 73 28 1752393037
0.072196 -0.246001 -1.00279 149 73 28 1752393037
0.0738 -0.246001 -1.02508 149 73 28 1752393037
0.075478 -0.246001 -1.04838 149 73 28 1752393037
0.077233 -0.246001 -1.07275 149 73 28 1752393037
0.079072 -0.246001 -1.0983 149 73 28 1752393037
0.081 -0.246001 -1.12508 149 73 28 1752393037
0.083025 -0.246001 -1.15321 149 73 28 1752393037
0.085154 -0.246001 -1.18278 149 73 28 1752393037
0.087395 -0.246001 -1.21391 149 73 28 1752393037
0.089757 -0.246001 -1.24672 149 73 28 1752393037
0.09225 -0.246001 -1.28135 149 73 28 1752393037
0.094886 -0.246001 -1.31796 149 73 28 1752393037
0.097677 -0.246001 -1.35672 149 73 28 1752393037
0.100637 -0.246001 -1.39783 149 73 28 1752393037
0.103782 -0.246001 -1.44152 149 73 28 1752393037
0.10713 -0.246001 -1.48802 149 73 28 1752393037
0.110701 -0.246001 -1.53762 149 73 28 1752393037
0.202379 -0.43474 -2.81102 177 105 42 1752393037
0.202379 -0.419749 -2.81102 177 105 42 1752393037
0.202379 -0.404758 -2.81102 177 105 42 1752393037
0.202379 -0.389767 -2.81102 177 105 42 1752393037
0.202379 -0.374776 -2.81102 177 105 42 1752393037
0.202379 -0.359785 -2.81102 177 105 42 1752393037
0.202379 -0.344794 -2.81102 177 105 42 1752393037
0.202379 -0.329803 -2.81102 177 105 42 1752393037
0.202379 -0.314812 -2.81102 177 105 42 1752393037
0.202379 -0.299821 -2.81102 177 105 42 1752393037
0.202379 -0.28483 -2.81102 177 105 42 1752393037
0.202379 -0.269839 -2.81102 177 105 42 1752393037
0.202379 -0.254848 -2.81102 177 105 42 1752393037
0.202379 -0.239857 -2.81102 177 105 42 1752393037
0.17577 -0.1953 -2.44142 177 105 42 1752393037
0.17577 -0.18228 -2.44142 177 105 42 1752393037
0.17577 -0.16926 -2.44142 177 105 42 1752393037
0.17577 -0.15624 -2.44142 177 105 42 1752393037
0.17577 -0.14322 -2.44142 177 105 42 1752393037
0.186233 -0.13795 -2.58675 177 105 42 1752393037
0.188124 -0.125416 -2.61302 177 105 42 1752393037
0.188124 -0.111481 -2.61302 177 105 42 1752393037
0.188124 -0.097546 -2.61302 177 105 42 1752393037
0.188124 -0.083611 -2.61302 177 105 42 1752393037
0.188124 -0.069676 -2.61302 177 105 42 1752393037
0.174819 -0.051798 -2.42822 177 105 42 1752393037
0.174819 -0.038849 -2.42822 177 105 42 1752393037
0.190797 -0.028266 -2.65014 177 105 42 1752393037
0.224915 -0.01666 -3.12404 204 182 121 1752393037
0.224915 0 -3.12404 255 255 255 1752393037
0.224915 0.01666 -3.12404 255 255 255 1752393037
0.224915 0.033321 -3.12404 255 255 255 1752393037
0.224915 0.049981 -3.12404 255 255 255 1752393037
0.224915 0.066641 -3.12404 255 255 255 1752393037
0.224915 0.083302 -3.12404 255 255 255 1752393037
0.224915 0.099962 -3.12404 255 255 255 1752393037
0.224915 0.116623 -3.12404 255 255 255 1752393037
0.224915 0.133283 -3.12404 255 255 255 1752393037
0.224915 0.149943 -3.12404 255 255 255 1752393037
0.224915 0.166604 -3.12404 79 115 115 1752393037
0.224915 0.183264 -3.12404 79 115 115 1752393037
0.19688 0.175005 -2.73464 232 149 121 1752393037
0.224915 0.216585 -3.12404 79 115 115 1752393037
0.224915 0.233245 -3.12404 79 115 115 1752393037
0.224915 0.249905 -3.12404 79 115 115 1752393037
0.224915 0.266566 -3.12404 79 115 115 1752393037
0.224915 0.283226 -3.12404 79 115 115 1752393037
0.224915 0.299886 -3.12404 79 115 115 1752393037
0.224915 0.316547 -3.12404 79 115 115 1752393037
0.224915 0.333207 -3.12404 79 115 115 1752393037
0.224915 0.349868 -3.12404 79 115 115 1752393037
0.224915 0.366528 -3.12404 79 115 115 1752393037
0.224915 0.383188 -3.12404 79 115 115 1752393037
0.224915 0.399849 -3.12404 79 115 115 1752393037
0.224915 0.416509 -3.12404 79 115 115 1752393037
0.224915 0.433169 -3.12404 79 115 115 1752393037
0.224915 0.44983 -3.12404 79 115 115 1752393037
0.224915 0.46649 -3.12404 79 115 115 1752393037
0.224915 0.483151 -3.12404 79 115 115 1752393037
0.224915 0.499811 -3.12404 79 115 115 1752393037
0.224915 0.516471 -3.12404 79 115 115 1752393037
0.224915 0.533132 -3.12404 79 115 115 1752393037
0.224915 0.549792 -3.12404 79 115 115 1752393037
0.224915 0.566452 -3.12404 79 115 115 1752393037
0.224915 0.583113 -3.12404 79 115 115 1752393037
0.224915 0.599773 -3.12404 79 115 115 1752393037
0.224915 0.616434 -3.12404 79 115 115 1752393037
0.224915 0.633094 -3.12404 79 115 115 1752393037
0.224915 0.649754 -3.12404 79 115 115 1752393037
0.224915 0.666414 -3.12404 79 115 115 1752393037
0.224915 0.683075 -3.12404 79 115 115 1752393037
0.194658 0.605602 -2.70377 0 128 0 1752393037
0.194706 0.620174 -2.70444 0 128 0 1752393037
0.194847 0.635056 -2.7064 0 128 0 1752393037
0.224915 0.749716 -3.12404 79 115 115 1752393037
0.224915 0.766377 -3.12404 79 115 115 1752393037
0.224915 0.783037 -3.12404 79 115 115 1752393037
0.224915 0.799697 -3.12404 79 115 115 1752393037
0.224915 0.816358 -3.12404 79 115 115 1752393037
0.224915 0.833018 -3.12404 79 115 115 1752393037
0.224915 0.849679 -3.12404 79 115 115 1752393037
0.224915 0.866339 -3.12404 79 115 115 1752393037
0.224915 0.882999 -3.12404 79 115 115 1752393037
0.224915 0.89966 -3.12404 79 115 115 1752393037
0.224915 0.91632 -3.12404 79 115 115 1752393037
0.224915 0.93298 -3.12404 79 115 115 1752393037
0.224915 0.949641 -3.12404 79 115 115 1752393037
0.224915 0.966301 -3.12404 79 115 115 1752393037
0.224915 0.982961 -3.12404 79 115 115 1752393037
0.224915 0.999622 -3.12404 79 115 115 1752393037
0.224915 1.01628 -3.12404 79 115 115 1752393037
0.224915 1.03294 -3.12404 79 115 115 1752393037
0.224915 1.0496 -3.12404 79 115 115 1752393037
0.224915 1.06626 -3.12404 79 115 115 1752393037
0.224915 1.08292 -3.12404 79 115 115 1752393037
0.224915 1.09958 -3.12404 79 115 115 1752393037
0.224915 1.11624 -3.12404 255 255 255 1752393037
0.224915 1.13291 -3.12404 255 255 255 1752393037
0.224915 1.14956 -3.12404 255 255 255 1752393037
0.224915 1.16623 -3.12404 255 255 255 1752393037
0.224915 1.18289 -3.12404 255 255 255 1752393037
0.224915 1.19955 -3.12404 255 255 255 1752393037
0.224915 1.21621 -3.12404 255 255 255 1752393037
0.224915 1.23287 -3.12404 255 255 255 1752393037
0.050957 -0.268196 -0.670538 149 73 28 1752393037
0.050957 -0.26462 -0.670538 149 73 28 1752393037
0.050059 -0.256444 -0.65872 149 73 28 1752393037
0.050059 -0.252931 -0.65872 149 73 28 1752393037
0.050059 -0.249418 -0.65872 149 73 28 1752393037
0.050079 -0.246001 -0.658978 149 73 28 1752393037
0.050805 -0.246001 -0.668528 149 73 28 1752393037
0.051552 -0.246001 -0.678359 149 73 28 1752393037
0.052321 -0.246001 -0.688484 149 73 28 1752393037
0.053114 -0.246001 -0.698916 149 73 28 1752393037
0.053931 -0.246001 -0.709668 149 73 28 1752393037
0.054774 -0.246001 -0.720757 149 73 28 1752393037
0.055643 -0.246001 -0.732198 149 73 28 1752393037
0.056541 -0.246001 -0.744007 149 73 28 1752393037
0.057467 -0.246001 -0.756204 149 73 28 1752393037
0.058425 -0.246001 -0.768807 149 73 28 1752393037
0.059415 -0.246001 -0.781838 149 73 28 1752393037
0.06044 -0.246001 -0.795318 149 73 28 1752393037
0.0615 -0.246001 -0.809271 149 73 28 1752393037
0.062598 -0.246001 -0.823722 149 73 28 1752393037
0.063737 -0.246001 -0.838699 149 73 28 1752393037
0.064917 -0.246001 -0.854231 149 73 28 1752393037
0.066142 -0.246001 -0.870348 149 73 28 1752393037
0.067414 -0.246001 -0.887086 149 73 28 1752393037
0.068736 -0.246001 -0.90448 149 73 28 1752393037
0.07011 -0.246001 -0.922569 149 73 28 1752393037
0.071541 -0.246001 -0.941397 149 73 28 1752393037
0.073032 -0.246001 -0.96101 149 73 28 1752393037
0.074585 -0.246001 -0.981457 149 73 28 1752393037
0.076207 -0.246001 -1.00279 149 73 28 1752393037
0.0779 -0.246001 -1.02508 149 73 28 1752393037
0.079671 -0.246001 -1.04838 149 73 28 1752393037
0.081524 -0.246001 -1.07276 149 73 28 1752393037
0.083465 -0.246001 -1.0983 149 73 28 1752393037
0.0855 -0.246001 -1.12508 149 73 28 1752393037
0.087638 -0.246001 -1.15321 149 73 28 1752393037
0.089885 -0.246001 -1.18278 149 73 28 1752393037
0.09225 -0.246001 -1.21391 149 73 28 1752393037
0.094744 -0.246001 -1.24672 149 73 28 1752393037
0.097375 -0.246001 -1.28135 149 73 28 1752393037
0.100158 -0.246001 -1.31796 149 73 28 1752393037
0.103103 -0.246001 -1.35672 149 73 28 1752393037
0.106228 -0.246001 -1.39783 149 73 28 1752393037
0.109547 -0.246001 -1.44152 149 73 28 1752393037
0.113081 -0.246001 -1.48802 149 73 28 1752393037
0.116851 -0.246001 -1.53762 149 73 28 1752393037
0.213622 -0.43474 -2.81102 177 105 42 1752393037
0.213622 -0.419749 -2.81102 177 105 42 1752393037
0.213622 -0.404758 -2.81102 177 105 42 1752393037
0.213622 -0.389767 -2.81102 177 105 42 1752393037
0.213622 -0.374776 -2.81102 177 105 42 1752393037
0.213622 -0.359785 -2.81102 177 105 42 1752393037
0.213622 -0.344794 -2.81102 177 105 42 1752393037
0.213622 -0.329803 -2.81102 177 105 42 1752393037
0.213622 -0.314812 -2.81102 177 105 42 1752393037
0.213622 -0.299821 -2.81102 177 105 42 1752393037
0.213622 -0.28483 -2.81102 177 105 42 1752393037
0.213622 -0.269839 -2.81102 177 105 42 1752393037
0.213622 -0.254848 -2.81102 177 105 42 1752393037
0.213622 -0.239857 -2.81102 177 105 42 1752393037
0.185535 -0.1953 -2.44142 177 105 42 1752393037
0.185535 -0.18228 -2.44142 177 105 42 1752393037
0.185535 -0.16926 -2.44142 177 105 42 1752393037
0.185535 -0.15624 -2.44142 177 105 42 1752393037
0.185535 -0.14322 -2.44142 177 105 42 1752393037
0.196579 -0.13795 -2.58675 177 105 42 1752393037
0.198575 -0.125416 -2.61302 177 105 42 1752393037
0.198575 -0.111481 -2.61302 177 105 42 1752393037
0.198575 -0.097546 -2.61302 177 105 42 1752393037
0.198575 -0.083611 -2.61302 177 105 42 1752393037
0.198575 -0.069676 -2.61302 177 105 42 1752393037
0.184532 -0.051798 -2.42822 177 105 42 1752393037
0.184532 -0.038849 -2.42822 177 105 42 1752393037
0.201397 -0.028266 -2.65014 177 105 42 1752393037
0.23741 -0.01666 -3.12404 204 182 121 1752393037
0.23741 0 -3.12404 255 255 255 1752393037
0.23741 0.01666 -3.12404 255 255 255 1752393037
0.23741 0.033321 -3.12404 255 255 255 1752393037
0.23741 0.049981 -3.12404 255 255 255 1752393037
0.23741 0.066641 -3.12404 255 255 255 1752393037
0.23741 0.083302 -3.12404 255 255 255 1752393037
0.23741 0.099962 -3.12404 255 255 255 1752393037
0.23741 0.116623 -3.12404 255 255 255 1752393037
0.23741 0.133283 -3.12404 255 255 255 1752393037
0.23741 0.149943 -3.12404 255 255 255 1752393037
0.207674 0.145736 -2.73274 232 149 121 1752393037
0.206932 0.159737 -2.72298 232 149 121 1752393037
0.206195 0.173638 -2.71329 232 149 121 1752393037
0.206581 0.18846 -2.71837 232 149 121 1752393037
0.207392 0.203754 -2.72904 232 149 121 1752393037
0.23741 0.249905 -3.12404 79 115 115 1752393037
0.23741 0.266566 -3.12404 79 115 115 1752393037
0.23741 0.283226 -3.12404 79 115 115 1752393037
0.23741 0.299886 -3.12404 79 115 115 1752393037
0.23741 0.316547 -3.12404 79 115 115 1752393037
0.23741 0.333207 -3.12404 79 115 115 1752393037
0.23741 0.349868 -3.12404 79 115 115 1752393037
0.23741 0.366528 -3.12404 79 115 115 1752393037
0.23741 0.383188 -3.12404 79 115 115 1752393037
0.23741 0.399849 -3.12404 79 115 115 1752393037
0.23741 0.416509 -3.12404 79 115 115 1752393037
0.23741 0.433169 -3.12404 79 115 115 1752393037
0.23741 0.44983 -3.12404 79 115 115 1752393037
0.23741 0.46649 -3.12404 79 115 115 1752393037
0.23741 0.483151 -3.12404 79 115 115 1752393037
0.23741 0.499811 -3.12404 79 115 115 1752393037
0.23741 0.516471 -3.12404 79 115 115 1752393037
0.23741 0.533132 -3.12404 79 115 115 1752393037
0.23741 0.549792 -3.12404 79 115 115 1752393037
0.23741 0.566452 -3.12404 79 115 115 1752393037
0.23741 0.583113 -3.12404 79 115 115 1752393037
0.23741 0.599773 -3.12404 79 115 115 1752393037
0.23741 0.616433 -3.12404 79 115 115 1752393037
0.23741 0.633094 -3.12404 79 115 115 1752393037
0.23741 0.649754 -3.12404 79 115 115 1752393037
0.20534 0.576392 -2.70203 0 128 0 1752393037
0.205384 0.59093 -2.70262 0 128 0 1752393037
0.205429 0.605474 -2.7032 0 128 0 1752393037
0.205487 0.620066 -2.70397 0 128 0 1752393037
0.23741 0.733056 -3.12404 79 115 115 1752393037
0.23741 0.749716 -3.12404 79 115 115 1752393037
0.23741 0.766377 -3.12404 79 115 115 1752393037
0.23741 0.783037 -3.12404 79 115 115 1752393037
0.23741 0.799697 -3.12404 79 115 115 1752393037
0.23741 0.816358 -3.12404 79 115 115 1752393037
0.23741 0.833018 -3.12404 79 115 115 1752393037
0.23741 0.849678 -3.12404 79 115 115 1752393037
0.23741 0.866339 -3.12404 79 115 115 1752393037
0.23741 0.882999 -3.12404 79 115 115 1752393037
0.23741 0.89966 -3.12404 79 115 115 1752393037
0.23741 0.91632 -3.12404 79 115 115 1752393037
0.23741 0.93298 -3.12404 79 115 115 1752393037
0.23741 0.949641 -3.12404 79 115 115 1752393037
0.23741 0.966301 -3.12404 79 115 115 1752393037
0.23741 0.982961 -3.12404 79 115 115 1752393037
0.23741 0.999622 -3.12404 79 115 115 1752393037
0.23741 1.01628 -3.12404 79 115 115 1752393037
0.23741 1.03294 -3.12404 79 115 115 1752393037
0.23741 1.0496 -3.12404 79 115 115 1752393037
0.23741 1.06626 -3.12404 79 115 115 1752393037
0.23741 1.08292 -3.12404 79 115 115 1752393037
0.23741 1.09958 -3.12404 79 115 115 1752393037
0.23741 1.11624 -3.12404 255 255 255 1752393037
0.23741 1.13291 -3.12404 255 255 255 1752393037
0.23741 1.14956 -3.12404 255 255 255 1752393037
0.23741 1.16623 -3.12404 255 255 255 1752393037
0.23741 1.18289 -3.12404 255 255 255 1752393037
0.23741 1.19955 -3.12404 255 255 255 1752393037
0.23741 1.21621 -3.12404 255 255 255 1752393037
0.23741 1.23287 -3.12404 255 255 255 1752393037
0.053668 -0.268339 -0.670895 149 73 28 1752393037
0.053668 -0.264761 -0.670895 149 73 28 1752393037
0.052722 -0.25658 -0.659071 149 73 28 1752393037
0.052722 -0.253065 -0.659071 149 73 28 1752393037
0.052722 -0.24955 -0.659071 149 73 28 1752393037
0.052722 -0.246036 -0.659071 149 73 28 1752393037
0.053478 -0.246001 -0.668528 149 73 28 1752393037
0.054265 -0.246001 -0.678359 149 73 28 1752393037
0.055075 -0.246001 -0.688484 149 73 28 1752393037
0.055909 -0.246001 -0.698916 149 73 28 1752393037
0.056769 -0.246001 -0.709668 149 73 28 1752393037
0.057656 -0.246001 -0.720757 149 73 28 1752393037
0.058572 -0.246001 -0.732198 149 73 28 1752393037
0.059516 -0.246001 -0.744007 149 73 28 1752393037
0.060492 -0.246001 -0.756204 149 73 28 1752393037
0.0615 -0.246001 -0.768807 149 73 28 1752393037
0.062543 -0.246001 -0.781838 149 73 28 1752393037
0.063621 -0.246001 -0.795318 149 73 28 1752393037
0.064737 -0.246001 -0.809271 149 73 28 1752393037
0.065893 -0.246001 -0.823722 149 73 28 1752393037
0.067091 -0.246001 -0.838699 149 73 28 1752393037
0.068334 -0.246001 -0.854231 149 73 28 1752393037
0.069623 -0.246001 -0.870348 149 73 28 1752393037
0.070962 -0.246001 -0.887086 149 73 28 1752393037
0.072353 -0.246001 -0.90448 149 73 28 1752393037
0.0738 -0.246001 -0.922569 149 73 28 1752393037
0.075306 -0.246001 -0.941397 149 73 28 1752393037
0.076875 -0.246001 -0.96101 149 73 28 1752393037
0.078511 -0.246001 -0.981457 149 73 28 1752393037
0.080218 -0.246001 -1.00279 149 73 28 1752393037
0.082 -0.246001 -1.02508 149 73 28 1752393037
0.083864 -0.246001 -1.04838 149 73 28 1752393037
0.085814 -0.246001 -1.07276 149 73 28 1752393037
0.087858 -0.246001 -1.0983 149 73 28 1752393037
0.09 -0.246001 -1.12508 149 73 28 1752393037
0.09225 -0.246001 -1.15321 149 73 28 1752393037
0.094616 -0.246001 -1.18278 149 73 28 1752393037
0.097106 -0.246001 -1.21391 149 73 28 1752393037
0.09973 -0.246001 -1.24672 149 73 28 1752393037
0.102501 -0.246001 -1.28135 149 73 28 1752393037
0.105429 -0.246001 -1.31796 149 73 28 1752393037
0.10853 -0.246001 -1.35672 149 73 28 1752393037
0.111819 -0.246001 -1.39783 149 73 28 1752393037
0.115313 -0.246001 -1.44152 149 73 28 1752393037
0.119033 -0.246001 -1.48802 149 73 28 1752393037
0.123001 -0.246001 -1.53762 149 73 28 1752393037
0.224866 -0.43474 -2.81102 177 105 42 1752393037
0.224866 -0.419749 -2.81102 177 105 42 1752393037
0.224866 -0.404758 -2.81102 177 105 42 1752393037
0.224866 -0.389767 -2.81102 177 105 42 1752393037
0.224866 -0.374776 -2.81102 177 105 42 1752393037
0.224866 -0.359785 -2.81102 177 105 42 1752393037
0.224866 -0.344794 -2.81102 177 105 42 1752393037
0.224866 -0.329803 -2.81102 177 105 42 1752393037
0.224866 -0.314812 -2.81102 177 105 42 1752393037
0.224865 -0.299821 -2.81102 177 105 42 1752393037
0.224866 -0.28483 -2.81102 177 105 42 1752393037
0.224866 -0.269839 -2.81102 177 105 42 1752393037
0.224866 -0.254848 -2.81102 177 105 42 1752393037
0.224866 -0.239857 -2.81102 177 105 42 1752393037
0.1953 -0.1953 -2.44142 177 105 42 1752393037
0.1953 -0.18228 -2.44142 177 105 42 1752393037
0.1953 -0.16926 -2.44142 177 105 42 1752393037
0.1953 -0.15624 -2.44142 177 105 42 1752393037
0.1953 -0.14322 -2.44142 177 105 42 1752393037
0.206925 -0.13795 -2.58675 177 105 42 1752393037
0.209027 -0.125416 -2.61302 177 105 42 1752393037
0.209027 -0.111481 -2.61302 177 105 42 1752393037
0.209027 -0.097546 -2.61302 177 105 42 1752393037
0.209027 -0.083611 -2.61302 177 105 42 1752393037
0.209027 -0.069676 -2.61302 177 105 42 1752393037
0.194244 -0.051798 -2.42822 177 105 42 1752393037
0.194244 -0.038849 -2.42822 177 105 42 1752393037
0.211996 -0.028266 -2.65014 177 105 42 1752393037
0.249905 -0.01666 -3.12404 204 182 121 1752393037
0.249905 0 -3.12404 255 255 255 1752393037
0.249905 0.01666 -3.12404 255 255 255 1752393037
0.249905 0.033321 -3.12404 255 255 255 1752393037
0.249905 0.049981 -3.12404 255 255 255 1752393037
0.249905 0.066641 -3.12404 255 255 255 1752393037
0.218667 0.072889 -2.73353 232 149 121 1752393037
0.21837 0.087348 -2.72982 232 149 121 1752393037
0.218073 0.101768 -2.72611 232 149 121 1752393037
0.217777 0.116148 -2.72241 232 149 121 1752393037
0.217482 0.130489 -2.71872 232 149 121 1752393037
0.216898 0.144598 -2.71141 232 149 121 1752393037
0.216129 0.158494 -2.7018 232 149 121 1752393037
0.215366 0.172293 -2.69226 232 149 121 1752393037
0.215606 0.186858 -2.69527 232 149 121 1752393037
0.216445 0.202015 -2.70575 232 149 121 1752393037
0.21729 0.21729 -2.71632 232 149 121 1752393037
0.218142 0.232685 -2.72697 232 149 121 1752393037
0.249905 0.283226 -3.12404 79 115 115 1752393037
0.249905 0.299886 -3.12404 79 115 115 1752393037
0.249905 0.316547 -3.12404 79 115 115 1752393037
0.249905 0.333207 -3.12404 79 115 115 1752393037
0.249905 0.349868 -3.12404 79 115 115 1752393037
0.249905 0.366528 -3.12404 79 115 115 1752393037
0.249905 0.383188 -3.12404 79 115 115 1752393037
0.249905 0.399849 -3.12404 79 115 115 1752393037
0.249905 0.416509 -3.12404 79 115 115 1752393037
0.249905 0.433169 -3.12404 79 115 115 1752393037
0.249905 0.44983 -3.12404 79 115 115 1752393037
0.249905 0.46649 -3.12404 79 115 115 1752393037
0.249905 0.48315 -3.12404 79 115 115 1752393037
0.249905 0.499811 -3.12404 79 115 115 1752393037
0.223368 0.461628 -2.7923 0 128 0 1752393037
0.249905 0.533132 -3.12404 79 115 115 1752393037
0.249905 0.549792 -3.12404 79 115 115 1752393037
0.249905 0.566452 -3.12404 79 115 115 1752393037
0.249905 0.583113 -3.12404 79 115 115 1752393037
0.249905 0.599773 -3.12404 79 115 115 1752393037
0.215961 0.532705 -2.69971 0 128 0 1752393037
0.216008 0.54722 -2.70029 0 128 0 1752393037
0.216063 0.561764 -2.70098 0 128 0 1752393037
0.216156 0.576416 -2.70214 0 128 0 1752393037
0.249905 0.683075 -3.12404 79 115 115 1752393037
0.249905 0.699735 -3.12404 79 115 115 1752393037
0.249905 0.716396 -3.12404 79 115 115 1752393037
0.249905 0.733056 -3.12404 79 115 115 1752393037
0.249905 0.749716 -3.12404 79 115 115 1752393037
0.249905 0.766377 -3.12404 79 115 115 1752393037
0.249905 0.783037 -3.12404 79 115 115 1752393037
0.249905 0.799697 -3.12404 79 115 115 1752393037
0.249905 0.816358 -3.12404 79 115 115 1752393037
0.249905 0.833018 -3.12404 79 115 115 1752393037
0.249905 0.849678 -3.12404 79 115 115 1752393037
0.249905 0.866339 -3.12404 79 115 115 1752393037
0.249905 0.882999 -3.12404 79 115 115 1752393037
0.249905 0.89966 -3.12404 79 115 115 1752393037
0.249905 0.91632 -3.12404 79 115 115 1752393037
0.249905 0.93298 -3.12404 79 115 115 1752393037
0.249905 0.949641 -3.12404 79 115 115 1752393037
0.249905 0.966301 -3.12404 79 115 115 1752393037
0.249905 0.982961 -3.12404 79 115 115 1752393037
0.249905 0.999622 -3.12404 79 115 115 1752393037
0.249905 1.01628 -3.12404 79 115 115 1752393037
0.249905 1.03294 -3.12404 79 115 115 1752393037
0.249905 1.0496 -3.12404 79 115 115 1752393037
0.249905 1.06626 -3.12404 79 115 115 1752393037
0.249905 1.08292 -3.12404 79 115 115 1752393037
0.249905 1.09958 -3.12404 79 115 115 1752393037
0.249905 1.11624 -3.12404 255 255 255 1752393037
0.249905 1.13291 -3.12404 255 255 255 1752393037
0.249905 1.14956 -3.12404 255 255 255 1752393037
0.249905 1.16623 -3.12404 255 255 255 1752393037
0.249905 1.18289 -3.12404 255 255 255 1752393037
0.249906 1.19955 -3.12404 255 255 255 1752393037
0.249905 1.21621 -3.12404 255 255 255 1752393037
0.249905 1.23287 -3.12404 255 255 255 1752393037
0.056381 -0.268482 -0.671252 149 73 28 1752393037
0.056381 -0.264902 -0.671252 149 73 28 1752393037
0.055387 -0.256717 -0.659422 149 73 28 1752393037
0.055387 -0.2532 -0.659422 149 73 28 1752393037
0.055387 -0.249683 -0.659422 149 73 28 1752393037
0.055387 -0.246167 -0.659422 149 73 28 1752393037
0.056152 -0.246001 -0.668528 149 73 28 1752393037
0.056978 -0.246001 -0.678359 149 73 28 1752393037
0.057829 -0.246001 -0.688484 149 73 28 1752393037
0.058705 -0.246001 -0.698916 149 73 28 1752393037
0.059608 -0.246001 -0.709668 149 73 28 1752393037
0.060539 -0.246001 -0.720757 149 73 28 1752393037
0.0615 -0.246001 -0.732197 149 73 28 1752393037
0.062492 -0.246001 -0.744007 149 73 28 1752393037
