ply
format ascii 1.0
comment PCL generated
obj_info is_cyberware_data 0
obj_info is_mesh 0
obj_info is_warped 0
obj_info is_interlaced 0
obj_info num_cols 30000
obj_info num_rows 1
obj_info echo_rgb_offset_x 0
obj_info echo_rgb_offset_y 0
obj_info echo_rgb_offset_z 0
obj_info echo_rgb_frontfocus 0.0
obj_info echo_rgb_backfocus 0.0
obj_info echo_rgb_pixelsize 0.0
obj_info echo_rgb_centerpixel 0
obj_info echo_frames 1
obj_info echo_lgincr 0.0
element vertex 956
property float x
property float y
property float z
property uchar red
property uchar green
property uchar blue
property uint label
end_header
0.624237 1.22866 -3.71596 177 105 42 1752393037
0.624237 1.24847 -3.71596 177 105 42 1752393037
0.624237 1.26829 -3.71596 177 105 42 1752393037
0.624237 1.28811 -3.71596 177 105 42 1752393037
0.624237 1.30792 -3.71596 177 105 42 1752393037
0.624236 1.32774 -3.71596 177 105 42 1752393037
0.624236 1.34756 -3.71596 177 105 42 1752393037
0.624237 1.36738 -3.71596 177 105 42 1752393037
0.624236 1.38719 -3.71596 177 105 42 1752393037
0.624236 1.40701 -3.71596 177 105 42 1752393037
0.624236 1.42683 -3.71596 177 105 42 1752393037
0.620868 1.43884 -3.6959 255 255 255 1752393037
0.617173 1.44987 -3.67391 255 255 255 1752393037
0.429999 -0.999999 -2.50017 188 179 133 1752393037
0.43581 -0.999999 -2.53396 188 179 133 1752393037
0.44178 -0.999999 -2.56867 188 179 133 1752393037
0.447916 -0.999999 -2.60435 188 179 133 1752393037
0.454225 -0.999999 -2.64103 188 179 133 1752393037
0.460714 -0.999999 -2.67876 188 179 133 1752393037
0.467391 -0.999999 -2.71758 188 179 133 1752393037
0.474264 -0.999999 -2.75755 188 179 133 1752393037
0.481343 -0.999999 -2.7987 188 179 133 1752393037
0.488636 -0.999999 -2.84111 188 179 133 1752393037
0.496153 -0.999999 -2.88482 188 179 133 1752393037
0.503905 -0.999999 -2.92989 188 179 133 1752393037
0.511904 -0.999999 -2.9764 188 179 133 1752393037
0.52016 -0.999998 -3.02441 188 179 133 1752393037
0.528688 -0.999999 -3.07399 188 179 133 1752393037
0.537499 -0.999999 -3.12522 188 179 133 1752393037
0.546609 -0.999998 -3.17819 188 179 133 1752393037
0.556034 -0.999998 -3.23298 188 179 133 1752393037
0.565789 -0.999998 -3.2897 188 179 133 1752393037
0.575892 -0.999998 -3.34845 188 179 133 1752393037
0.586363 -0.999998 -3.40933 188 179 133 1752393037
0.597221 -0.999998 -3.47246 188 179 133 1752393037
0.608489 -0.999998 -3.53798 188 179 133 1752393037
0.620191 -0.999998 -3.60602 188 179 133 1752393037
0.632352 -0.999998 -3.67673 255 255 255 1752393037
0.640738 -0.993392 -3.72549 177 105 42 1752393037
0.640738 -0.973525 -3.72549 177 105 42 1752393037
0.640738 -0.953657 -3.72549 177 105 42 1752393037
0.640738 -0.933789 -3.72549 177 105 42 1752393037
0.640738 -0.913921 -3.72549 177 105 42 1752393037
0.640738 -0.894053 -3.72549 177 105 42 1752393037
0.640738 -0.874185 -3.72549 177 105 42 1752393037
0.640738 -0.854318 -3.72549 177 105 42 1752393037
0.640738 -0.83445 -3.72549 177 105 42 1752393037
0.640738 -0.814582 -3.72549 177 105 42 1752393037
0.640738 -0.794714 -3.72549 177 105 42 1752393037
0.640738 -0.774846 -3.72549 177 105 42 1752393037
0.640738 -0.754978 -3.72549 177 105 42 1752393037
0.640738 -0.73511 -3.72549 177 105 42 1752393037
0.640738 -0.715243 -3.72549 177 105 42 1752393037
0.640738 -0.695375 -3.72549 177 105 42 1752393037
0.640738 -0.675507 -3.72549 177 105 42 1752393037
0.640738 -0.655639 -3.72549 177 105 42 1752393037
0.640738 -0.635771 -3.72549 177 105 42 1752393037
0.640738 -0.615903 -3.72549 177 105 42 1752393037
0.640738 -0.596035 -3.72549 177 105 42 1752393037
0.640738 -0.576168 -3.72549 177 105 42 1752393037
0.640738 -0.5563 -3.72549 177 105 42 1752393037
0.640738 -0.536432 -3.72549 177 105 42 1752393037
0.640738 -0.516564 -3.72549 177 105 42 1752393037
0.640738 -0.496696 -3.72549 177 105 42 1752393037
0.640738 -0.476828 -3.72549 177 105 42 1752393037
0.640738 -0.45696 -3.72549 177 105 42 1752393037
0.640738 -0.437093 -3.72549 177 105 42 1752393037
0.640738 -0.417225 -3.72549 177 105 42 1752393037
0.640738 -0.397357 -3.72549 177 105 42 1752393037
0.640738 -0.377489 -3.72549 177 105 42 1752393037
0.640738 -0.357621 -3.72549 177 105 42 1752393037
0.640738 -0.337753 -3.72549 177 105 42 1752393037
0.640738 -0.317886 -3.72549 177 105 42 1752393037
0.640738 -0.298018 -3.72549 177 105 42 1752393037
0.640738 -0.27815 -3.72549 177 105 42 1752393037
0.640738 -0.258282 -3.72549 177 105 42 1752393037
0.640738 -0.238414 -3.72549 177 105 42 1752393037
0.640738 -0.218546 -3.72549 177 105 42 1752393037
0.640738 -0.198678 -3.72549 177 105 42 1752393037
0.640738 -0.178811 -3.72549 177 105 42 1752393037
0.640738 -0.158943 -3.72549 177 105 42 1752393037
0.640738 -0.139075 -3.72549 177 105 42 1752393037
0.640738 -0.119207 -3.72549 177 105 42 1752393037
0.640738 -0.099339 -3.72549 177 105 42 1752393037
0.640738 -0.079471 -3.72549 177 105 42 1752393037
0.640738 -0.059604 -3.72549 177 105 42 1752393037
0.640738 -0.039736 -3.72549 177 105 42 1752393037
0.640738 -0.019868 -3.72549 177 105 42 1752393037
0.640738 0 -3.72549 177 105 42 1752393037
0.640738 0.019868 -3.72549 177 105 42 1752393037
0.640738 0.039736 -3.72549 177 105 42 1752393037
0.640738 0.059604 -3.72549 177 105 42 1752393037
0.640738 0.079471 -3.72549 177 105 42 1752393037
0.640738 0.099339 -3.72549 177 105 42 1752393037
0.640738 0.119207 -3.72549 177 105 42 1752393037
0.640738 0.139075 -3.72549 177 105 42 1752393037
0.640738 0.158943 -3.72549 177 105 42 1752393037
0.640738 0.178811 -3.72549 177 105 42 1752393037
0.640738 0.198678 -3.72549 177 105 42 1752393037
0.640738 0.218546 -3.72549 177 105 42 1752393037
0.640738 0.238414 -3.72549 177 105 42 1752393037
0.640738 0.258282 -3.72549 177 105 42 1752393037
0.640738 0.27815 -3.72549 177 105 42 1752393037
0.640738 0.298018 -3.72549 177 105 42 1752393037
0.640738 0.317886 -3.72549 177 105 42 1752393037
0.640738 0.337753 -3.72549 177 105 42 1752393037
0.640738 0.357621 -3.72549 177 105 42 1752393037
0.640738 0.377489 -3.72549 177 105 42 1752393037
0.640738 0.397357 -3.72549 177 105 42 1752393037
0.640738 0.417225 -3.72549 177 105 42 1752393037
0.640738 0.437093 -3.72549 177 105 42 1752393037
0.640738 0.45696 -3.72549 177 105 42 1752393037
0.640738 0.476828 -3.72549 177 105 42 1752393037
0.640738 0.496696 -3.72549 177 105 42 1752393037
0.640738 0.516564 -3.72549 177 105 42 1752393037
0.640738 0.536432 -3.72549 177 105 42 1752393037
0.640738 0.5563 -3.72549 177 105 42 1752393037
0.640738 0.576168 -3.72549 177 105 42 1752393037
0.640738 0.596035 -3.72549 177 105 42 1752393037
0.640738 0.615903 -3.72549 177 105 42 1752393037
0.640738 0.635771 -3.72549 177 105 42 1752393037
0.640738 0.655639 -3.72549 177 105 42 1752393037
0.640738 0.675507 -3.72549 177 105 42 1752393037
0.640738 0.695374 -3.72549 177 105 42 1752393037
0.640738 0.715242 -3.72549 177 105 42 1752393037
0.640738 0.73511 -3.72549 177 105 42 1752393037
0.640738 0.754978 -3.72549 177 105 42 1752393037
0.640738 0.774846 -3.72549 177 105 42 1752393037
0.640738 0.794714 -3.72549 177 105 42 1752393037
0.640738 0.814582 -3.72549 177 105 42 1752393037
0.640738 0.834449 -3.72549 177 105 42 1752393037
0.640738 0.854317 -3.72549 177 105 42 1752393037
0.640738 0.874185 -3.72549 177 105 42 1752393037
0.640738 0.894053 -3.72549 177 105 42 1752393037
0.640738 0.913921 -3.72549 177 105 42 1752393037
0.640738 0.933788 -3.72549 177 105 42 1752393037
0.640738 0.953656 -3.72549 177 105 42 1752393037
0.640738 0.973524 -3.72549 177 105 42 1752393037
0.640738 0.993392 -3.72549 177 105 42 1752393037
0.640738 1.01326 -3.72549 177 105 42 1752393037
0.640738 1.03313 -3.72549 177 105 42 1752393037
0.640738 1.053 -3.72549 177 105 42 1752393037
0.640738 1.07286 -3.72549 177 105 42 1752393037
0.640738 1.09273 -3.72549 177 105 42 1752393037
0.640738 1.1126 -3.72549 177 105 42 1752393037
0.640738 1.13247 -3.72549 177 105 42 1752393037
0.640738 1.15234 -3.72549 177 105 42 1752393037
0.640738 1.1722 -3.72549 177 105 42 1752393037
0.640738 1.19207 -3.72549 177 105 42 1752393037
0.640738 1.21194 -3.72549 177 105 42 1752393037
0.640738 1.23181 -3.72549 177 105 42 1752393037
0.640738 1.25167 -3.72549 177 105 42 1752393037
0.640738 1.27154 -3.72549 177 105 42 1752393037
0.640738 1.29141 -3.72549 177 105 42 1752393037
0.640738 1.31128 -3.72549 177 105 42 1752393037
0.640738 1.33115 -3.72549 177 105 42 1752393037
0.640738 1.35101 -3.72549 177 105 42 1752393037
0.640738 1.37088 -3.72549 177 105 42 1752393037
0.640738 1.39075 -3.72549 177 105 42 1752393037
0.640738 1.41062 -3.72549 177 105 42 1752393037
0.637542 1.42335 -3.7069 255 255 255 1752393037
0.633736 1.4345 -3.68478 255 255 255 1752393037
0.629976 1.44553 -3.66291 255 255 255 1752393037
0.439999 -0.999999 -2.50017 188 179 133 1752393037
0.445945 -0.999999 -2.53396 188 179 133 1752393037
0.452054 -0.999999 -2.56867 188 179 133 1752393037
0.458333 -0.999999 -2.60435 188 179 133 1752393037
0.464788 -0.999999 -2.64103 188 179 133 1752393037
0.471428 -0.999999 -2.67876 188 179 133 1752393037
0.47826 -0.999999 -2.71758 188 179 133 1752393037
0.485294 -0.999999 -2.75755 188 179 133 1752393037
0.492537 -0.999999 -2.7987 188 179 133 1752393037
0.499999 -0.999999 -2.84111 188 179 133 1752393037
0.507692 -0.999999 -2.88482 188 179 133 1752393037
0.515624 -0.999999 -2.92989 188 179 133 1752393037
0.523809 -0.999999 -2.9764 188 179 133 1752393037
0.532257 -0.999999 -3.02441 188 179 133 1752393037
0.540983 -0.999999 -3.07399 188 179 133 1752393037
0.549999 -0.999998 -3.12522 188 179 133 1752393037
0.559321 -0.999998 -3.17819 188 179 133 1752393037
0.568965 -0.999998 -3.23298 188 179 133 1752393037
0.578946 -0.999998 -3.2897 188 179 133 1752393037
0.589285 -0.999998 -3.34845 188 179 133 1752393037
0.599999 -0.999998 -3.40933 188 179 133 1752393037
0.61111 -0.999998 -3.47246 188 179 133 1752393037
0.62264 -0.999998 -3.53798 188 179 133 1752393037
0.634614 -0.999998 -3.60602 188 179 133 1752393037
0.647058 -0.999998 -3.67673 255 255 255 1752393037
0.657324 -0.995946 -3.73506 177 105 42 1752393037
0.657324 -0.976027 -3.73506 177 105 42 1752393037
0.657324 -0.956108 -3.73506 177 105 42 1752393037
0.657324 -0.936189 -3.73506 177 105 42 1752393037
0.657324 -0.91627 -3.73506 177 105 42 1752393037
0.657324 -0.896351 -3.73506 177 105 42 1752393037
0.657324 -0.876432 -3.73506 177 105 42 1752393037
0.657324 -0.856513 -3.73506 177 105 42 1752393037
0.657324 -0.836595 -3.73506 177 105 42 1752393037
0.657324 -0.816676 -3.73506 177 105 42 1752393037
0.657324 -0.796757 -3.73506 177 105 42 1752393037
0.657324 -0.776838 -3.73506 177 105 42 1752393037
0.657324 -0.756919 -3.73506 177 105 42 1752393037
0.657324 -0.737 -3.73506 177 105 42 1752393037
0.657324 -0.717081 -3.73506 177 105 42 1752393037
0.657324 -0.697162 -3.73506 177 105 42 1752393037
0.657324 -0.677243 -3.73506 177 105 42 1752393037
0.657324 -0.657324 -3.73506 177 105 42 1752393037
0.657324 -0.637405 -3.73506 177 105 42 1752393037
0.657324 -0.617486 -3.73506 177 105 42 1752393037
0.657324 -0.597567 -3.73506 177 105 42 1752393037
0.657324 -0.577649 -3.73506 177 105 42 1752393037
0.657324 -0.55773 -3.73506 177 105 42 1752393037
0.657324 -0.537811 -3.73506 177 105 42 1752393037
0.657324 -0.517892 -3.73506 177 105 42 1752393037
0.657324 -0.497973 -3.73506 177 105 42 1752393037
0.657324 -0.478054 -3.73506 177 105 42 1752393037
0.657324 -0.458135 -3.73506 177 105 42 1752393037
0.657324 -0.438216 -3.73506 177 105 42 1752393037
0.657324 -0.418297 -3.73506 177 105 42 1752393037
0.657324 -0.398378 -3.73506 177 105 42 1752393037
0.657324 -0.378459 -3.73506 177 105 42 1752393037
0.657324 -0.35854 -3.73506 177 105 42 1752393037
0.657324 -0.338622 -3.73506 177 105 42 1752393037
0.657324 -0.318703 -3.73506 177 105 42 1752393037
0.657324 -0.298784 -3.73506 177 105 42 1752393037
0.657324 -0.278865 -3.73506 177 105 42 1752393037
0.657324 -0.258946 -3.73506 177 105 42 1752393037
0.657324 -0.239027 -3.73506 177 105 42 1752393037
0.657324 -0.219108 -3.73506 177 105 42 1752393037
0.657324 -0.199189 -3.73506 177 105 42 1752393037
0.657324 -0.17927 -3.73506 177 105 42 1752393037
0.657324 -0.159351 -3.73506 177 105 42 1752393037
0.657324 -0.139432 -3.73506 177 105 42 1752393037
0.657324 -0.119513 -3.73506 177 105 42 1752393037
0.657324 -0.099595 -3.73506 177 105 42 1752393037
0.657324 -0.079676 -3.73506 177 105 42 1752393037
0.657324 -0.059757 -3.73506 177 105 42 1752393037
0.657324 -0.039838 -3.73506 177 105 42 1752393037
0.657324 -0.019919 -3.73506 177 105 42 1752393037
0.657324 0 -3.73506 177 105 42 1752393037
0.657324 0.019919 -3.73506 177 105 42 1752393037
0.657324 0.039838 -3.73506 177 105 42 1752393037
0.657324 0.059757 -3.73506 177 105 42 1752393037
0.657324 0.079676 -3.73506 177 105 42 1752393037
0.657324 0.099595 -3.73506 177 105 42 1752393037
0.657324 0.119513 -3.73506 177 105 42 1752393037
0.657324 0.139432 -3.73506 177 105 42 1752393037
0.657324 0.159351 -3.73506 177 105 42 1752393037
0.657324 0.17927 -3.73506 177 105 42 1752393037
0.657324 0.199189 -3.73506 177 105 42 1752393037
0.657324 0.219108 -3.73506 177 105 42 1752393037
0.657324 0.239027 -3.73506 177 105 42 1752393037
0.657324 0.258946 -3.73506 177 105 42 1752393037
0.657324 0.278865 -3.73506 177 105 42 1752393037
0.657324 0.298784 -3.73506 177 105 42 1752393037
0.657324 0.318703 -3.73506 177 105 42 1752393037
0.657324 0.338621 -3.73506 177 105 42 1752393037
0.657324 0.35854 -3.73506 177 105 42 1752393037
0.657324 0.378459 -3.73506 177 105 42 1752393037
0.657324 0.398378 -3.73506 177 105 42 1752393037
0.657324 0.418297 -3.73506 177 105 42 1752393037
0.657324 0.438216 -3.73506 177 105 42 1752393037
0.657324 0.458135 -3.73506 177 105 42 1752393037
0.657324 0.478054 -3.73506 177 105 42 1752393037
0.657324 0.497973 -3.73506 177 105 42 1752393037
0.657324 0.517892 -3.73506 177 105 42 1752393037
0.657324 0.537811 -3.73506 177 105 42 1752393037
0.657324 0.55773 -3.73506 177 105 42 1752393037
0.657324 0.577648 -3.73506 177 105 42 1752393037
0.657324 0.597567 -3.73506 177 105 42 1752393037
0.657324 0.617486 -3.73506 177 105 42 1752393037
0.657324 0.637405 -3.73506 177 105 42 1752393037
0.657324 0.657324 -3.73506 177 105 42 1752393037
0.657324 0.677243 -3.73506 177 105 42 1752393037
0.657324 0.697162 -3.73506 177 105 42 1752393037
0.657324 0.717081 -3.73506 177 105 42 1752393037
0.657324 0.737 -3.73506 177 105 42 1752393037
0.657324 0.756919 -3.73506 177 105 42 1752393037
0.657324 0.776838 -3.73506 177 105 42 1752393037
0.657324 0.796756 -3.73506 177 105 42 1752393037
0.657324 0.816675 -3.73506 177 105 42 1752393037
0.657324 0.836594 -3.73506 177 105 42 1752393037
0.657324 0.856513 -3.73506 177 105 42 1752393037
0.657324 0.876432 -3.73506 177 105 42 1752393037
0.657324 0.896351 -3.73506 177 105 42 1752393037
0.657324 0.91627 -3.73506 177 105 42 1752393037
0.657324 0.936189 -3.73506 177 105 42 1752393037
0.657324 0.956108 -3.73506 177 105 42 1752393037
0.657324 0.976027 -3.73506 177 105 42 1752393037
0.657324 0.995945 -3.73506 177 105 42 1752393037
0.657324 1.01586 -3.73506 177 105 42 1752393037
0.657324 1.03578 -3.73506 177 105 42 1752393037
0.657324 1.0557 -3.73506 177 105 42 1752393037
0.657324 1.07562 -3.73506 177 105 42 1752393037
0.657324 1.09554 -3.73506 177 105 42 1752393037
0.657324 1.11546 -3.73506 177 105 42 1752393037
0.657324 1.13538 -3.73506 177 105 42 1752393037
0.657324 1.1553 -3.73506 177 105 42 1752393037
0.657324 1.17522 -3.73506 177 105 42 1752393037
0.657324 1.19513 -3.73506 177 105 42 1752393037
0.657324 1.21505 -3.73506 177 105 42 1752393037
0.657324 1.23497 -3.73506 177 105 42 1752393037
0.657324 1.25489 -3.73506 177 105 42 1752393037
0.657324 1.27481 -3.73506 177 105 42 1752393037
0.657324 1.29473 -3.73506 177 105 42 1752393037
0.657324 1.31465 -3.73506 177 105 42 1752393037
0.657324 1.33457 -3.73506 177 105 42 1752393037
0.657324 1.35449 -3.73506 177 105 42 1752393037
0.657324 1.3744 -3.73506 177 105 42 1752393037
0.657324 1.39432 -3.73506 177 105 42 1752393037
0.654315 1.40777 -3.71796 255 255 255 1752393037
0.650398 1.41905 -3.6957 255 255 255 1752393037
0.646527 1.4302 -3.67371 255 255 255 1752393037
0.642702 1.44121 -3.65198 255 255 255 1752393037
0.449999 -0.999999 -2.50017 188 179 133 1752393037
0.45608 -0.999999 -2.53396 188 179 133 1752393037
0.462328 -0.999999 -2.56867 188 179 133 1752393037
0.468749 -0.999999 -2.60435 188 179 133 1752393037
0.475352 -0.999999 -2.64103 188 179 133 1752393037
0.482142 -0.999999 -2.67876 188 179 133 1752393037
0.48913 -0.999999 -2.71758 188 179 133 1752393037
0.496323 -0.999999 -2.75755 188 179 133 1752393037
0.503731 -0.999999 -2.7987 188 179 133 1752393037
0.511363 -0.999999 -2.84111 188 179 133 1752393037
0.51923 -0.999999 -2.88482 188 179 133 1752393037
0.527343 -0.999999 -2.92989 188 179 133 1752393037
0.535713 -0.999999 -2.9764 188 179 133 1752393037
0.544354 -0.999999 -3.02441 188 179 133 1752393037
0.553278 -0.999999 -3.07399 188 179 133 1752393037
0.562499 -0.999999 -3.12522 188 179 133 1752393037
0.572033 -0.999998 -3.17819 188 179 133 1752393037
0.581896 -0.999998 -3.23298 188 179 133 1752393037
0.592104 -0.999998 -3.2897 188 179 133 1752393037
0.602678 -0.999998 -3.34845 188 179 133 1752393037
0.613635 -0.999998 -3.40933 188 179 133 1752393037
0.624999 -0.999998 -3.47246 188 179 133 1752393037
0.636791 -0.999998 -3.53798 188 179 133 1752393037
0.649037 -0.999998 -3.60602 188 179 133 1752393037
0.661763 -0.999998 -3.67673 255 255 255 1752393037
0.673996 -0.998512 -3.74469 177 105 42 1752393037
0.673996 -0.978542 -3.74469 177 105 42 1752393037
0.673996 -0.958572 -3.74469 177 105 42 1752393037
0.673996 -0.938602 -3.74469 177 105 42 1752393037
0.673996 -0.918631 -3.74469 177 105 42 1752393037
0.673996 -0.898661 -3.74469 177 105 42 1752393037
0.673996 -0.878691 -3.74469 177 105 42 1752393037
0.673996 -0.858721 -3.74469 177 105 42 1752393037
0.673996 -0.83875 -3.74469 177 105 42 1752393037
0.673996 -0.81878 -3.74469 177 105 42 1752393037
0.673996 -0.79881 -3.74469 177 105 42 1752393037
0.673996 -0.77884 -3.74469 177 105 42 1752393037
0.673996 -0.758869 -3.74469 177 105 42 1752393037
0.673996 -0.738899 -3.74469 177 105 42 1752393037
0.673996 -0.718929 -3.74469 177 105 42 1752393037
0.673996 -0.698959 -3.74469 177 105 42 1752393037
0.673996 -0.678988 -3.74469 177 105 42 1752393037
0.673996 -0.659018 -3.74469 177 105 42 1752393037
0.673996 -0.639048 -3.74469 177 105 42 1752393037
0.673996 -0.619078 -3.74469 177 105 42 1752393037
0.673996 -0.599107 -3.74469 177 105 42 1752393037
0.673996 -0.579137 -3.74469 177 105 42 1752393037
0.673996 -0.559167 -3.74469 177 105 42 1752393037
0.673996 -0.539197 -3.74469 177 105 42 1752393037
0.673996 -0.519226 -3.74469 177 105 42 1752393037
0.673996 -0.499256 -3.74469 177 105 42 1752393037
0.673996 -0.479286 -3.74469 177 105 42 1752393037
0.673996 -0.459316 -3.74469 177 105 42 1752393037
0.673996 -0.439345 -3.74469 177 105 42 1752393037
0.673996 -0.419375 -3.74469 177 105 42 1752393037
0.673996 -0.399405 -3.74469 177 105 42 1752393037
0.673996 -0.379435 -3.74469 177 105 42 1752393037
0.673996 -0.359464 -3.74469 177 105 42 1752393037
0.673996 -0.339494 -3.74469 177 105 42 1752393037
0.673996 -0.319524 -3.74469 177 105 42 1752393037
0.673996 -0.299554 -3.74469 177 105 42 1752393037
0.673996 -0.279583 -3.74469 177 105 42 1752393037
0.673996 -0.259613 -3.74469 177 105 42 1752393037
0.673996 -0.239643 -3.74469 177 105 42 1752393037
0.673996 -0.219673 -3.74469 177 105 42 1752393037
0.673996 -0.199702 -3.74469 177 105 42 1752393037
0.673996 -0.179732 -3.74469 177 105 42 1752393037
0.673996 -0.159762 -3.74469 177 105 42 1752393037
0.673996 -0.139792 -3.74469 177 105 42 1752393037
0.673996 -0.119821 -3.74469 177 105 42 1752393037
0.673996 -0.099851 -3.74469 177 105 42 1752393037
0.673996 -0.079881 -3.74469 177 105 42 1752393037
0.673996 -0.059911 -3.74469 177 105 42 1752393037
0.673996 -0.03994 -3.74469 177 105 42 1752393037
0.673996 -0.01997 -3.74469 177 105 42 1752393037
0.673996 0 -3.74469 177 105 42 1752393037
0.673996 0.01997 -3.74469 177 105 42 1752393037
0.673996 0.03994 -3.74469 177 105 42 1752393037
0.673996 0.059911 -3.74469 177 105 42 1752393037
0.673996 0.079881 -3.74469 177 105 42 1752393037
0.673996 0.099851 -3.74469 177 105 42 1752393037
0.673996 0.119821 -3.74469 177 105 42 1752393037
0.673996 0.139792 -3.74469 177 105 42 1752393037
0.673996 0.159762 -3.74469 177 105 42 1752393037
0.673996 0.179732 -3.74469 177 105 42 1752393037
0.673996 0.199702 -3.74469 177 105 42 1752393037
0.673996 0.219673 -3.74469 177 105 42 1752393037
0.673996 0.239643 -3.74469 177 105 42 1752393037
0.673996 0.259613 -3.74469 177 105 42 1752393037
0.673996 0.279583 -3.74469 177 105 42 1752393037
0.673996 0.299554 -3.74469 177 105 42 1752393037
0.673996 0.319524 -3.74469 177 105 42 1752393037
0.673996 0.339494 -3.74469 177 105 42 1752393037
0.673996 0.359464 -3.74469 177 105 42 1752393037
0.673996 0.379435 -3.74469 177 105 42 1752393037
0.673996 0.399405 -3.74469 177 105 42 1752393037
0.673996 0.419375 -3.74469 177 105 42 1752393037
0.673996 0.439345 -3.74469 177 105 42 1752393037
0.673996 0.459316 -3.74469 177 105 42 1752393037
0.673996 0.479286 -3.74469 177 105 42 1752393037
0.673996 0.499256 -3.74469 177 105 42 1752393037
0.673996 0.519226 -3.74469 177 105 42 1752393037
0.673996 0.539196 -3.74469 177 105 42 1752393037
0.673996 0.559167 -3.74469 177 105 42 1752393037
0.673996 0.579137 -3.74469 177 105 42 1752393037
0.673996 0.599107 -3.74469 177 105 42 1752393037
0.673996 0.619078 -3.74469 177 105 42 1752393037
0.673996 0.639048 -3.74469 177 105 42 1752393037
0.673996 0.659018 -3.74469 177 105 42 1752393037
0.673996 0.678988 -3.74469 177 105 42 1752393037
0.673996 0.698959 -3.74469 177 105 42 1752393037
0.673996 0.718929 -3.74469 177 105 42 1752393037
0.673996 0.738899 -3.74469 177 105 42 1752393037
0.673996 0.758869 -3.74469 177 105 42 1752393037
0.673996 0.778839 -3.74469 177 105 42 1752393037
0.673996 0.79881 -3.74469 177 105 42 1752393037
0.673996 0.81878 -3.74469 177 105 42 1752393037
0.673996 0.83875 -3.74469 177 105 42 1752393037
0.673996 0.85872 -3.74469 177 105 42 1752393037
0.673996 0.878691 -3.74469 177 105 42 1752393037
0.673996 0.898661 -3.74469 177 105 42 1752393037
0.673996 0.918631 -3.74469 177 105 42 1752393037
0.673996 0.938601 -3.74469 177 105 42 1752393037
0.673996 0.958572 -3.74469 177 105 42 1752393037
0.673996 0.978542 -3.74469 177 105 42 1752393037
0.673996 0.998512 -3.74469 177 105 42 1752393037
0.673996 1.01848 -3.74469 177 105 42 1752393037
0.673996 1.03845 -3.74469 177 105 42 1752393037
0.673996 1.05842 -3.74469 177 105 42 1752393037
0.673996 1.07839 -3.74469 177 105 42 1752393037
0.673996 1.09836 -3.74469 177 105 42 1752393037
0.673996 1.11833 -3.74469 177 105 42 1752393037
0.673996 1.1383 -3.74469 177 105 42 1752393037
0.673996 1.15827 -3.74469 177 105 42 1752393037
0.673996 1.17824 -3.74469 177 105 42 1752393037
0.673996 1.19821 -3.74469 177 105 42 1752393037
0.673996 1.21818 -3.74469 177 105 42 1752393037
0.673996 1.23816 -3.74469 177 105 42 1752393037
0.673996 1.25812 -3.74469 177 105 42 1752393037
0.673996 1.2781 -3.74469 177 105 42 1752393037
0.673996 1.29807 -3.74469 177 105 42 1752393037
0.673995 1.31804 -3.74469 177 105 42 1752393037
0.673996 1.33801 -3.74469 177 105 42 1752393037
0.673996 1.35798 -3.74469 177 105 42 1752393037
0.673996 1.37795 -3.74469 177 105 42 1752393037
0.671189 1.39209 -3.72909 255 255 255 1752393037
0.667158 1.4035 -3.7067 255 255 255 1752393037
0.663176 1.41478 -3.68458 255 255 255 1752393037
0.659241 1.42592 -3.66271 255 255 255 1752393037
0.655353 1.43692 -3.64111 255 255 255 1752393037
0.459999 -0.999999 -2.50017 188 179 133 1752393037
0.466216 -0.999999 -2.53396 188 179 133 1752393037
0.472602 -0.999999 -2.56867 188 179 133 1752393037
0.479166 -0.999999 -2.60435 188 179 133 1752393037
0.485915 -0.999999 -2.64103 188 179 133 1752393037
0.492857 -0.999999 -2.67876 188 179 133 1752393037
0.499999 -0.999999 -2.71758 188 179 133 1752393037
0.507352 -0.999999 -2.75755 188 179 133 1752393037
0.514925 -0.999999 -2.7987 188 179 133 1752393037
0.522727 -0.999999 -2.84111 188 179 133 1752393037
0.530768 -0.999998 -2.88482 188 179 133 1752393037
0.539062 -0.999999 -2.92989 188 179 133 1752393037
0.547618 -0.999998 -2.9764 188 179 133 1752393037
0.556451 -0.999999 -3.02441 188 179 133 1752393037
0.565573 -0.999999 -3.07399 188 179 133 1752393037
0.574999 -0.999998 -3.12522 188 179 133 1752393037
0.584745 -0.999998 -3.17819 188 179 133 1752393037
0.594827 -0.999998 -3.23298 188 179 133 1752393037
0.605262 -0.999998 -3.2897 188 179 133 1752393037
0.61607 -0.999998 -3.34845 188 179 133 1752393037
0.627272 -0.999998 -3.40933 188 179 133 1752393037
0.638888 -0.999998 -3.47246 188 179 133 1752393037
0.650942 -0.999998 -3.53798 188 179 133 1752393037
0.66346 -0.999998 -3.60602 188 179 133 1752393037
0.676469 -0.999998 -3.67673 255 255 255 1752393037
0.689999 -0.999998 -3.75026 255 255 255 1752393037
0.690754 -0.981071 -3.75436 177 105 42 1752393037
0.690754 -0.961048 -3.75436 177 105 42 1752393037
0.690754 -0.941027 -3.75436 177 105 42 1752393037
0.690754 -0.921005 -3.75436 177 105 42 1752393037
0.690754 -0.900983 -3.75436 177 105 42 1752393037
0.690754 -0.880961 -3.75436 177 105 42 1752393037
0.690754 -0.860939 -3.75436 177 105 42 1752393037
0.690754 -0.840918 -3.75436 177 105 42 1752393037
0.690754 -0.820896 -3.75436 177 105 42 1752393037
0.690754 -0.800874 -3.75436 177 105 42 1752393037
0.690754 -0.780852 -3.75436 177 105 42 1752393037
0.690754 -0.76083 -3.75436 177 105 42 1752393037
0.690754 -0.740808 -3.75436 177 105 42 1752393037
0.690754 -0.720786 -3.75436 177 105 42 1752393037
0.690754 -0.700765 -3.75436 177 105 42 1752393037
0.690754 -0.680743 -3.75436 177 105 42 1752393037
0.690754 -0.660721 -3.75436 177 105 42 1752393037
0.690754 -0.640699 -3.75436 177 105 42 1752393037
0.690754 -0.620677 -3.75436 177 105 42 1752393037
0.690754 -0.600655 -3.75436 177 105 42 1752393037
0.690754 -0.580633 -3.75436 177 105 42 1752393037
0.690754 -0.560612 -3.75436 177 105 42 1752393037
0.690754 -0.54059 -3.75436 177 105 42 1752393037
0.690754 -0.520568 -3.75436 177 105 42 1752393037
0.690754 -0.500546 -3.75436 177 105 42 1752393037
0.690754 -0.480524 -3.75436 177 105 42 1752393037
0.690754 -0.460502 -3.75436 177 105 42 1752393037
0.690754 -0.440481 -3.75436 177 105 42 1752393037
0.690754 -0.420459 -3.75436 177 105 42 1752393037
0.690754 -0.400437 -3.75436 177 105 42 1752393037
0.690754 -0.380415 -3.75436 177 105 42 1752393037
0.690754 -0.360393 -3.75436 177 105 42 1752393037
0.690754 -0.340371 -3.75436 177 105 42 1752393037
0.690754 -0.320349 -3.75436 177 105 42 1752393037
0.690754 -0.300328 -3.75436 177 105 42 1752393037
0.690754 -0.280306 -3.75436 177 105 42 1752393037
0.690754 -0.260284 -3.75436 177 105 42 1752393037
0.690754 -0.240262 -3.75436 177 105 42 1752393037
0.690754 -0.22024 -3.75436 177 105 42 1752393037
0.690754 -0.200218 -3.75436 177 105 42 1752393037
0.690754 -0.180197 -3.75436 177 105 42 1752393037
0.690754 -0.160175 -3.75436 177 105 42 1752393037
0.690754 -0.140153 -3.75436 177 105 42 1752393037
0.690754 -0.120131 -3.75436 177 105 42 1752393037
0.690754 -0.100109 -3.75436 177 105 42 1752393037
0.690754 -0.080087 -3.75436 177 105 42 1752393037
0.690754 -0.060066 -3.75436 177 105 42 1752393037
0.690754 -0.040044 -3.75436 177 105 42 1752393037
0.690754 -0.020022 -3.75436 177 105 42 1752393037
0.690754 0 -3.75436 177 105 42 1752393037
0.690754 0.020022 -3.75436 177 105 42 1752393037
0.690754 0.040044 -3.75436 177 105 42 1752393037
0.690753 0.060066 -3.75436 177 105 42 1752393037
0.690754 0.080087 -3.75436 177 105 42 1752393037
0.690754 0.100109 -3.75436 177 105 42 1752393037
0.690754 0.120131 -3.75436 177 105 42 1752393037
0.690754 0.140153 -3.75436 177 105 42 1752393037
0.690753 0.160175 -3.75436 177 105 42 1752393037
0.690754 0.180197 -3.75436 177 105 42 1752393037
0.690754 0.200218 -3.75436 177 105 42 1752393037
0.690754 0.22024 -3.75436 177 105 42 1752393037
0.690754 0.240262 -3.75436 177 105 42 1752393037
0.690754 0.260284 -3.75436 177 105 42 1752393037
0.690754 0.280306 -3.75436 177 105 42 1752393037
0.690753 0.300328 -3.75436 177 105 42 1752393037
0.690753 0.320349 -3.75436 177 105 42 1752393037
0.690754 0.340371 -3.75436 177 105 42 1752393037
0.690754 0.360393 -3.75436 177 105 42 1752393037
0.690754 0.380415 -3.75436 177 105 42 1752393037
0.690753 0.400437 -3.75436 177 105 42 1752393037
0.690754 0.420459 -3.75436 177 105 42 1752393037
0.690754 0.440481 -3.75436 177 105 42 1752393037
0.690753 0.460502 -3.75436 177 105 42 1752393037
0.690753 0.480524 -3.75436 177 105 42 1752393037
0.690753 0.500546 -3.75436 177 105 42 1752393037
0.690753 0.520568 -3.75436 177 105 42 1752393037
0.690753 0.54059 -3.75436 177 105 42 1752393037
0.690753 0.560611 -3.75436 177 105 42 1752393037
0.690754 0.580633 -3.75436 177 105 42 1752393037
0.690753 0.600655 -3.75436 177 105 42 1752393037
0.690753 0.620677 -3.75436 177 105 42 1752393037
0.690754 0.640699 -3.75436 177 105 42 1752393037
0.690753 0.660721 -3.75436 177 105 42 1752393037
0.690753 0.680742 -3.75436 177 105 42 1752393037
0.690753 0.700764 -3.75436 177 105 42 1752393037
0.690753 0.720786 -3.75436 177 105 42 1752393037
0.690753 0.740808 -3.75436 177 105 42 1752393037
0.690753 0.76083 -3.75436 177 105 42 1752393037
0.690753 0.780852 -3.75436 177 105 42 1752393037
0.690753 0.800874 -3.75436 177 105 42 1752393037
0.690754 0.820895 -3.75436 177 105 42 1752393037
0.690753 0.840917 -3.75436 177 105 42 1752393037
0.690753 0.860939 -3.75436 177 105 42 1752393037
0.690753 0.880961 -3.75436 177 105 42 1752393037
0.690753 0.900983 -3.75436 177 105 42 1752393037
0.690753 0.921005 -3.75436 177 105 42 1752393037
0.690753 0.941026 -3.75436 177 105 42 1752393037
0.690753 0.961048 -3.75436 177 105 42 1752393037
0.690753 0.98107 -3.75436 177 105 42 1752393037
0.690753 1.00109 -3.75436 177 105 42 1752393037
0.690753 1.02111 -3.75436 177 105 42 1752393037
0.690753 1.04114 -3.75436 177 105 42 1752393037
0.690753 1.06116 -3.75436 177 105 42 1752393037
0.690753 1.08118 -3.75436 177 105 42 1752393037
0.690753 1.1012 -3.75436 177 105 42 1752393037
0.690753 1.12122 -3.75436 177 105 42 1752393037
0.690753 1.14125 -3.75436 177 105 42 1752393037
0.690753 1.16127 -3.75436 177 105 42 1752393037
0.690753 1.18129 -3.75436 177 105 42 1752393037
0.690753 1.20131 -3.75436 177 105 42 1752393037
0.690753 1.22133 -3.75436 177 105 42 1752393037
0.690753 1.24135 -3.75436 177 105 42 1752393037
0.690753 1.26138 -3.75436 177 105 42 1752393037
0.690753 1.2814 -3.75436 177 105 42 1752393037
0.690753 1.30142 -3.75436 177 105 42 1752393037
0.690753 1.32144 -3.75436 177 105 42 1752393037
0.690753 1.34146 -3.75436 177 105 42 1752393037
0.690753 1.36149 -3.75436 177 105 42 1752393037
0.688164 1.37633 -3.74029 255 255 255 1752393037
0.684019 1.38786 -3.71776 255 255 255 1752393037
0.679924 1.39927 -3.6955 255 255 255 1752393037
0.675878 1.41053 -3.67351 255 255 255 1752393037
0.67188 1.42166 -3.65178 255 255 255 1752393037
0.6715 1.44032 -3.64971 204 182 121 1752393037
0.469999 -0.999999 -2.50017 188 179 133 1752393037
0.476351 -0.999999 -2.53396 188 179 133 1752393037
0.482876 -0.999999 -2.56867 188 179 133 1752393037
0.489583 -0.999999 -2.60435 188 179 133 1752393037
0.496478 -0.999999 -2.64103 188 179 133 1752393037
0.503571 -0.999999 -2.67876 188 179 133 1752393037
0.510869 -0.999999 -2.71758 188 179 133 1752393037
0.518382 -0.999999 -2.75755 188 179 133 1752393037
0.526119 -0.999999 -2.7987 188 179 133 1752393037
0.53409 -0.999999 -2.84111 188 179 133 1752393037
0.542307 -0.999999 -2.88482 188 179 133 1752393037
0.55078 -0.999999 -2.92989 188 179 133 1752393037
0.559523 -0.999999 -2.9764 188 179 133 1752393037
0.568548 -0.999999 -3.02441 188 179 133 1752393037
0.577868 -0.999999 -3.07399 188 179 133 1752393037
0.587499 -0.999998 -3.12522 188 179 133 1752393037
0.597457 -0.999999 -3.17819 188 179 133 1752393037
0.607758 -0.999998 -3.23299 188 179 133 1752393037
0.61842 -0.999998 -3.2897 188 179 133 1752393037
0.629463 -0.999998 -3.34845 188 179 133 1752393037
0.640908 -0.999998 -3.40933 188 179 133 1752393037
0.652777 -0.999998 -3.47246 188 179 133 1752393037
0.665093 -0.999998 -3.53798 188 179 133 1752393037
0.677883 -0.999998 -3.60602 188 179 133 1752393037
0.691175 -0.999998 -3.67673 255 255 255 1752393037
0.704999 -0.999998 -3.75026 255 255 255 1752393037
0.707598 -0.983612 -3.76409 177 105 42 1752393037
0.707598 -0.963538 -3.76409 177 105 42 1752393037
0.707598 -0.943464 -3.76409 177 105 42 1752393037
0.707598 -0.923391 -3.76409 177 105 42 1752393037
0.707598 -0.903317 -3.76409 177 105 42 1752393037
0.707598 -0.883243 -3.76409 177 105 42 1752393037
0.707598 -0.863169 -3.76409 177 105 42 1752393037
0.707598 -0.843096 -3.76409 177 105 42 1752393037
0.707598 -0.823022 -3.76409 177 105 42 1752393037
0.707598 -0.802948 -3.76409 177 105 42 1752393037
0.707598 -0.782875 -3.76409 177 105 42 1752393037
0.707598 -0.762801 -3.76409 177 105 42 1752393037
0.707598 -0.742727 -3.76409 177 105 42 1752393037
0.707598 -0.722653 -3.76409 177 105 42 1752393037
0.707598 -0.70258 -3.76409 177 105 42 1752393037
0.707598 -0.682506 -3.76409 177 105 42 1752393037
0.707598 -0.662432 -3.76409 177 105 42 1752393037
0.707598 -0.642359 -3.76409 177 105 42 1752393037
0.707598 -0.622285 -3.76409 177 105 42 1752393037
0.707598 -0.602211 -3.76409 177 105 42 1752393037
0.707598 -0.582138 -3.76409 177 105 42 1752393037
0.707598 -0.562064 -3.76409 177 105 42 1752393037
0.707598 -0.54199 -3.76409 177 105 42 1752393037
0.707598 -0.521916 -3.76409 177 105 42 1752393037
0.707598 -0.501843 -3.76409 177 105 42 1752393037
0.707598 -0.481769 -3.76409 177 105 42 1752393037
0.707598 -0.461695 -3.76409 177 105 42 1752393037
0.707598 -0.441622 -3.76409 177 105 42 1752393037
0.707598 -0.421548 -3.76409 177 105 42 1752393037
0.707598 -0.401474 -3.76409 177 105 42 1752393037
0.707598 -0.3814 -3.76409 177 105 42 1752393037
0.707598 -0.361327 -3.76409 177 105 42 1752393037
0.707598 -0.341253 -3.76409 177 105 42 1752393037
0.707598 -0.321179 -3.76409 177 105 42 1752393037
0.707598 -0.301106 -3.76409 177 105 42 1752393037
0.707598 -0.281032 -3.76409 177 105 42 1752393037
0.707598 -0.260958 -3.76409 177 105 42 1752393037
0.707598 -0.240884 -3.76409 177 105 42 1752393037
0.707598 -0.220811 -3.76409 177 105 42 1752393037
0.707598 -0.200737 -3.76409 177 105 42 1752393037
0.707598 -0.180663 -3.76409 177 105 42 1752393037
0.707598 -0.16059 -3.76409 177 105 42 1752393037
0.707598 -0.140516 -3.76409 177 105 42 1752393037
0.707598 -0.120442 -3.76409 177 105 42 1752393037
0.707598 -0.100369 -3.76409 177 105 42 1752393037
0.707598 -0.080295 -3.76409 177 105 42 1752393037
0.707598 -0.060221 -3.76409 177 105 42 1752393037
0.707598 -0.040147 -3.76409 177 105 42 1752393037
0.707598 -0.020074 -3.76409 177 105 42 1752393037
0.707598 0 -3.76409 177 105 42 1752393037
0.707598 0.020074 -3.76409 177 105 42 1752393037
0.707598 0.040147 -3.76409 177 105 42 1752393037
0.707598 0.060221 -3.76409 177 105 42 1752393037
0.707598 0.080295 -3.76409 177 105 42 1752393037
0.707598 0.100369 -3.76409 177 105 42 1752393037
0.707598 0.120442 -3.76409 177 105 42 1752393037
0.707598 0.140516 -3.76409 177 105 42 1752393037
0.707598 0.16059 -3.76409 177 105 42 1752393037
0.707598 0.180663 -3.76409 177 105 42 1752393037
0.707598 0.200737 -3.76409 177 105 42 1752393037
0.707598 0.220811 -3.76409 177 105 42 1752393037
0.707598 0.240884 -3.76409 177 105 42 1752393037
0.707598 0.260958 -3.76409 177 105 42 1752393037
0.707598 0.281032 -3.76409 177 105 42 1752393037
0.707598 0.301106 -3.76409 177 105 42 1752393037
0.707598 0.321179 -3.76409 177 105 42 1752393037
0.707598 0.341253 -3.76409 177 105 42 1752393037
0.707598 0.361327 -3.76409 177 105 42 1752393037
0.707598 0.3814 -3.76409 177 105 42 1752393037
0.707598 0.401474 -3.76409 177 105 42 1752393037
0.707598 0.421548 -3.76409 177 105 42 1752393037
0.707598 0.441622 -3.76409 177 105 42 1752393037
0.707598 0.461695 -3.76409 177 105 42 1752393037
0.707598 0.481769 -3.76409 177 105 42 1752393037
0.707598 0.501843 -3.76409 177 105 42 1752393037
0.707598 0.521916 -3.76409 177 105 42 1752393037
0.707598 0.54199 -3.76409 177 105 42 1752393037
0.707598 0.562064 -3.76409 177 105 42 1752393037
0.707598 0.582137 -3.76409 177 105 42 1752393037
0.707598 0.602211 -3.76409 177 105 42 1752393037
0.707598 0.622285 -3.76409 177 105 42 1752393037
0.707598 0.642359 -3.76409 177 105 42 1752393037
0.707598 0.662432 -3.76409 177 105 42 1752393037
0.707598 0.682506 -3.76409 177 105 42 1752393037
0.707598 0.70258 -3.76409 177 105 42 1752393037
0.707598 0.722653 -3.76409 177 105 42 1752393037
0.707598 0.742727 -3.76409 177 105 42 1752393037
0.707598 0.762801 -3.76409 177 105 42 1752393037
0.707598 0.782874 -3.76409 177 105 42 1752393037
0.707598 0.802948 -3.76409 177 105 42 1752393037
0.707598 0.823022 -3.76409 177 105 42 1752393037
0.707598 0.843095 -3.76409 177 105 42 1752393037
0.707598 0.863169 -3.76409 177 105 42 1752393037
0.707598 0.883243 -3.76409 177 105 42 1752393037
0.707598 0.903317 -3.76409 177 105 42 1752393037
0.707598 0.92339 -3.76409 177 105 42 1752393037
0.707598 0.943464 -3.76409 177 105 42 1752393037
0.707598 0.963538 -3.76409 177 105 42 1752393037
0.707598 0.983611 -3.76409 177 105 42 1752393037
0.707598 1.00368 -3.76409 177 105 42 1752393037
0.707598 1.02376 -3.76409 177 105 42 1752393037
0.707598 1.04383 -3.76409 177 105 42 1752393037
0.707598 1.06391 -3.76409 177 105 42 1752393037
0.707598 1.08398 -3.76409 177 105 42 1752393037
0.707598 1.10405 -3.76409 177 105 42 1752393037
0.707598 1.12413 -3.76409 177 105 42 1752393037
0.707598 1.1442 -3.76409 177 105 42 1752393037
0.707598 1.16428 -3.76409 177 105 42 1752393037
0.707598 1.18435 -3.76409 177 105 42 1752393037
0.707598 1.20442 -3.76409 177 105 42 1752393037
0.707598 1.2245 -3.76409 177 105 42 1752393037
0.707598 1.24457 -3.76409 177 105 42 1752393037
0.707598 1.26464 -3.76409 177 105 42 1752393037
0.707598 1.28472 -3.76409 177 105 42 1752393037
0.707598 1.30479 -3.76409 177 105 42 1752393037
0.707598 1.32486 -3.76409 177 105 42 1752393037
0.707598 1.34494 -3.76409 177 105 42 1752393037
0.705241 1.36047 -3.75155 255 255 255 1752393037
0.700981 1.37213 -3.72889 255 255 255 1752393037
0.696772 1.38366 -3.7065 255 255 255 1752393037
0.692613 1.39505 -3.68438 255 255 255 1752393037
0.688504 1.40631 -3.66251 255 255 255 1752393037
0.687875 1.42454 -3.65917 204 182 121 1752393037
0.687875 1.44405 -3.65917 204 182 121 1752393037
0.479999 -0.999999 -2.50017 188 179 133 1752393037
0.486486 -0.999999 -2.53396 188 179 133 1752393037
0.49315 -0.999999 -2.56867 188 179 133 1752393037
0.499999 -0.999999 -2.60435 188 179 133 1752393037
0.507042 -0.999999 -2.64103 188 179 133 1752393037
0.514285 -0.999999 -2.67876 188 179 133 1752393037
0.521738 -0.999999 -2.71758 188 179 133 1752393037
0.529411 -0.999999 -2.75755 188 179 133 1752393037
0.537313 -0.999999 -2.7987 188 179 133 1752393037
0.545454 -0.999999 -2.84111 188 179 133 1752393037
0.553845 -0.999999 -2.88482 188 179 133 1752393037
0.562499 -0.999999 -2.92989 188 179 133 1752393037
0.571428 -0.999999 -2.9764 188 179 133 1752393037
0.580644 -0.999998 -3.02441 188 179 133 1752393037
0.590163 -0.999999 -3.07399 188 179 133 1752393037
0.599999 -0.999998 -3.12522 188 179 133 1752393037
0.610169 -0.999998 -3.17819 188 179 133 1752393037
0.620689 -0.999999 -3.23298 188 179 133 1752393037
0.631578 -0.999998 -3.2897 188 179 133 1752393037
0.642856 -0.999998 -3.34845 188 179 133 1752393037
0.654544 -0.999998 -3.40933 188 179 133 1752393037
0.666665 -0.999998 -3.47246 188 179 133 1752393037
0.679244 -0.999998 -3.53798 188 179 133 1752393037
0.692306 -0.999998 -3.60602 188 179 133 1752393037
0.705881 -0.999998 -3.67673 255 255 255 1752393037
0.719998 -0.999998 -3.75026 255 255 255 1752393037
0.720383 -0.980522 -3.75226 255 255 255 1752393037
0.720384 -0.960511 -3.75226 255 255 255 1752393037
0.720384 -0.940501 -3.75226 255 255 255 1752393037
0.720384 -0.92049 -3.75226 255 255 255 1752393037
0.720384 -0.900479 -3.75226 255 255 255 1752393037
0.720383 -0.880469 -3.75226 255 255 255 1752393037
0.720384 -0.860458 -3.75227 255 255 255 1752393037
0.720384 -0.840447 -3.75226 255 255 255 1752393037
0.720383 -0.820437 -3.75226 255 255 255 1752393037
0.720383 -0.800426 -3.75226 255 255 255 1752393037
0.720384 -0.780416 -3.75226 255 255 255 1752393037
0.720384 -0.760405 -3.75226 255 255 255 1752393037
0.720383 -0.740394 -3.75226 255 255 255 1752393037
0.720384 -0.720384 -3.75226 255 255 255 1752393037
0.720384 -0.700373 -3.75227 255 255 255 1752393037
0.720384 -0.680362 -3.75226 255 255 255 1752393037
0.720384 -0.660352 -3.75226 255 255 255 1752393037
0.720384 -0.640341 -3.75226 255 255 255 1752393037
0.720384 -0.62033 -3.75226 255 255 255 1752393037
0.720384 -0.60032 -3.75226 255 255 255 1752393037
0.720384 -0.580309 -3.75227 255 255 255 1752393037
0.720384 -0.560298 -3.75226 255 255 255 1752393037
0.720384 -0.540288 -3.75227 255 255 255 1752393037
0.720384 -0.520277 -3.75226 255 255 255 1752393037
0.720384 -0.500266 -3.75226 255 255 255 1752393037
0.720384 -0.480256 -3.75226 255 255 255 1752393037
0.720384 -0.460245 -3.75226 255 255 255 1752393037
0.720383 -0.440234 -3.75226 255 255 255 1752393037
0.720384 -0.420224 -3.75226 255 255 255 1752393037
0.720384 -0.400213 -3.75226 255 255 255 1752393037
0.720384 -0.380202 -3.75226 255 255 255 1752393037
0.720383 -0.360192 -3.75226 255 255 255 1752393037
0.720384 -0.340181 -3.75226 255 255 255 1752393037
0.720384 -0.32017 -3.75226 255 255 255 1752393037
0.720384 -0.30016 -3.75226 255 255 255 1752393037
0.720384 -0.280149 -3.75226 255 255 255 1752393037
0.720384 -0.260139 -3.75226 255 255 255 1752393037
0.720383 -0.240128 -3.75226 255 255 255 1752393037
0.720384 -0.220117 -3.75226 255 255 255 1752393037
0.720384 -0.200107 -3.75226 255 255 255 1752393037
0.720384 -0.180096 -3.75226 255 255 255 1752393037
0.720384 -0.160085 -3.75226 255 255 255 1752393037
0.720384 -0.140075 -3.75226 255 255 255 1752393037
0.720383 -0.120064 -3.75226 255 255 255 1752393037
0.720384 -0.100053 -3.75226 255 255 255 1752393037
0.720384 -0.080043 -3.75226 255 255 255 1752393037
0.720384 -0.060032 -3.75226 255 255 255 1752393037
0.720384 -0.040021 -3.75226 255 255 255 1752393037
0.720384 -0.020011 -3.75226 255 255 255 1752393037
0.720384 0 -3.75226 255 255 255 1752393037
0.720384 0.020011 -3.75226 255 255 255 1752393037
0.720384 0.040021 -3.75226 255 255 255 1752393037
0.720384 0.060032 -3.75226 255 255 255 1752393037
0.720384 0.080043 -3.75226 255 255 255 1752393037
0.720384 0.100053 -3.75226 255 255 255 1752393037
0.720383 0.120064 -3.75226 255 255 255 1752393037
0.720384 0.140075 -3.75226 255 255 255 1752393037
0.720384 0.160085 -3.75226 255 255 255 1752393037
0.720384 0.180096 -3.75226 255 255 255 1752393037
0.720384 0.200107 -3.75226 255 255 255 1752393037
0.720384 0.220117 -3.75226 255 255 255 1752393037
0.720383 0.240128 -3.75226 255 255 255 1752393037
0.720384 0.260139 -3.75226 255 255 255 1752393037
0.720384 0.280149 -3.75226 255 255 255 1752393037
0.720384 0.30016 -3.75226 255 255 255 1752393037
0.720384 0.32017 -3.75226 255 255 255 1752393037
0.720384 0.340181 -3.75226 255 255 255 1752393037
0.720383 0.360192 -3.75226 255 255 255 1752393037
0.720384 0.380202 -3.75226 255 255 255 1752393037
0.720384 0.400213 -3.75226 255 255 255 1752393037
0.720384 0.420224 -3.75226 255 255 255 1752393037
0.720383 0.440234 -3.75226 255 255 255 1752393037
0.720384 0.460245 -3.75226 255 255 255 1752393037
0.720384 0.480256 -3.75226 255 255 255 1752393037
0.720384 0.500266 -3.75226 255 255 255 1752393037
0.720384 0.520277 -3.75226 255 255 255 1752393037
0.720384 0.540288 -3.75227 255 255 255 1752393037
0.720384 0.560298 -3.75226 255 255 255 1752393037
0.720384 0.580309 -3.75227 255 255 255 1752393037
0.720384 0.60032 -3.75226 255 255 255 1752393037
0.720384 0.62033 -3.75226 255 255 255 1752393037
0.720384 0.640341 -3.75226 255 255 255 1752393037
0.720384 0.660352 -3.75226 255 255 255 1752393037
0.720384 0.680362 -3.75226 255 255 255 1752393037
0.720384 0.700373 -3.75227 255 255 255 1752393037
0.720384 0.720384 -3.75226 255 255 255 1752393037
0.720383 0.740394 -3.75226 255 255 255 1752393037
0.720384 0.760405 -3.75226 255 255 255 1752393037
0.720384 0.780416 -3.75226 255 255 255 1752393037
0.720383 0.800426 -3.75226 255 255 255 1752393037
0.720383 0.820437 -3.75226 255 255 255 1752393037
0.720384 0.840447 -3.75226 255 255 255 1752393037
0.720384 0.860458 -3.75227 255 255 255 1752393037
0.720383 0.880469 -3.75226 255 255 255 1752393037
0.720384 0.900479 -3.75226 255 255 255 1752393037
0.720384 0.92049 -3.75226 255 255 255 1752393037
0.720384 0.940501 -3.75226 255 255 255 1752393037
0.720384 0.960511 -3.75226 255 255 255 1752393037
0.720383 0.980522 -3.75226 255 255 255 1752393037
0.720383 1.00053 -3.75226 255 255 255 1752393037
0.720384 1.02054 -3.75226 255 255 255 1752393037
0.720384 1.04055 -3.75226 255 255 255 1752393037
0.720383 1.06056 -3.75226 255 255 255 1752393037
0.720383 1.08057 -3.75226 255 255 255 1752393037
0.720384 1.10059 -3.75226 255 255 255 1752393037
0.720383 1.1206 -3.75226 255 255 255 1752393037
0.720384 1.14061 -3.75226 255 255 255 1752393037
0.720384 1.16062 -3.75227 255 255 255 1752393037
0.720384 1.18063 -3.75226 255 255 255 1752393037
0.720383 1.20064 -3.75226 255 255 255 1752393037
0.720384 1.22065 -3.75226 255 255 255 1752393037
0.720384 1.24066 -3.75226 255 255 255 1752393037
0.720383 1.26067 -3.75226 255 255 255 1752393037
0.720384 1.28068 -3.75227 255 255 255 1752393037
0.720384 1.30069 -3.75226 255 255 255 1752393037
0.720383 1.3207 -3.75226 255 255 255 1752393037
0.720384 1.34071 -3.75226 255 255 255 1752393037
0.718045 1.35631 -3.74008 255 255 255 1752393037
0.71372 1.36796 -3.71756 255 255 255 1752393037
0.709448 1.37948 -3.6953 255 255 255 1752393037
0.705226 1.39086 -3.67331 255 255 255 1752393037
0.704335 1.40867 -3.66867 204 182 121 1752393037
0.704335 1.42824 -3.66867 204 182 121 1752393037
0.704335 1.4478 -3.66867 204 182 121 1752393037
0.489999 -0.999999 -2.50017 188 179 133 1752393037
0.496621 -0.999999 -2.53396 188 179 133 1752393037
0.503424 -0.999999 -2.56867 188 179 133 1752393037
0.510416 -0.999999 -2.60435 188 179 133 1752393037
0.517605 -0.999999 -2.64103 188 179 133 1752393037
0.524999 -0.999999 -2.67876 188 179 133 1752393037
0.532608 -0.999999 -2.71758 188 179 133 1752393037
0.54044 -0.999999 -2.75755 188 179 133 1752393037
0.548507 -0.999999 -2.7987 188 179 133 1752393037
0.556817 -0.999999 -2.84111 188 179 133 1752393037
0.565384 -0.999999 -2.88482 188 179 133 1752393037
0.574218 -0.999999 -2.92989 188 179 133 1752393037
0.583332 -0.999999 -2.9764 188 179 133 1752393037
0.592741 -0.999998 -3.02441 188 179 133 1752393037
0.602458 -0.999999 -3.07399 188 179 133 1752393037
0.612499 -0.999999 -3.12522 188 179 133 1752393037
0.62288 -0.999998 -3.17819 188 179 133 1752393037
0.63362 -0.999998 -3.23298 188 179 133 1752393037
0.644736 -0.999998 -3.2897 188 179 133 1752393037
0.656249 -0.999998 -3.34845 188 179 133 1752393037
0.668181 -0.999998 -3.40933 188 179 133 1752393037
0.680554 -0.999998 -3.47246 188 179 133 1752393037
0.693395 -0.999998 -3.53798 188 179 133 1752393037
0.706729 -0.999998 -3.60602 188 179 133 1752393037
0.720587 -0.999998 -3.67673 188 179 133 1752393037
0.731588 -0.995358 -3.73286 255 255 255 1752393037
0.731588 -0.975451 -3.73286 255 255 255 1752393037
0.731588 -0.955544 -3.73286 255 255 255 1752393037
0.731588 -0.935636 -3.73286 255 255 255 1752393037
0.731588 -0.915729 -3.73286 255 255 255 1752393037
0.731588 -0.895822 -3.73286 255 255 255 1752393037
0.731588 -0.875915 -3.73286 255 255 255 1752393037
0.731588 -0.856008 -3.73286 255 255 255 1752393037
0.731588 -0.836101 -3.73286 255 255 255 1752393037
0.731588 -0.816193 -3.73286 255 255 255 1752393037
0.731588 -0.796286 -3.73286 255 255 255 1752393037
0.731588 -0.776379 -3.73286 255 255 255 1752393037
0.731588 -0.756472 -3.73286 255 255 255 1752393037
0.731588 -0.736565 -3.73286 255 255 255 1752393037
0.731588 -0.716658 -3.73286 255 255 255 1752393037
0.731588 -0.696751 -3.73286 255 255 255 1752393037
0.731588 -0.676843 -3.73286 255 255 255 1752393037
0.731588 -0.656936 -3.73286 255 255 255 1752393037
