ply
format ascii 1.0
comment PCL generated
obj_info is_cyberware_data 0
obj_info is_mesh 0
obj_info is_warped 0
obj_info is_interlaced 0
obj_info num_cols 30000
obj_info num_rows 1
obj_info echo_rgb_offset_x 0
obj_info echo_rgb_offset_y 0
obj_info echo_rgb_offset_z 0
obj_info echo_rgb_frontfocus 0.0
obj_info echo_rgb_backfocus 0.0
obj_info echo_rgb_pixelsize 0.0
obj_info echo_rgb_centerpixel 0
obj_info echo_frames 1
obj_info echo_lgincr 0.0
element vertex 1007
property float x
property float y
property float z
property uchar red
property uchar green
property uchar blue
property uint label
end_header
-1.21021 -0.283713 -3.325 204 182 121 1752393037
-1.21021 -0.265981 -3.325 204 182 121 1752393037
-1.21021 -0.248249 -3.325 204 182 121 1752393037
-1.21021 -0.230517 -3.325 204 182 121 1752393037
-1.21021 -0.212785 -3.325 204 182 121 1752393037
-1.21021 -0.195053 -3.325 204 182 121 1752393037
-1.21021 -0.177321 -3.325 204 182 121 1752393037
-1.21021 -0.159589 -3.325 204 182 121 1752393037
-1.21021 -0.141857 -3.325 204 182 121 1752393037
-1.21021 -0.124125 -3.325 204 182 121 1752393037
-1.21021 -0.106392 -3.325 204 182 121 1752393037
-1.21021 -0.08866 -3.325 204 182 121 1752393037
-1.21021 -0.070928 -3.325 204 182 121 1752393037
-1.21021 -0.053196 -3.325 204 182 121 1752393037
-1.21021 -0.035464 -3.325 204 182 121 1752393037
-1.21021 -0.017732 -3.325 204 182 121 1752393037
-1.21021 0 -3.325 204 182 121 1752393037
-1.21021 0.017732 -3.325 204 182 121 1752393037
-1.21021 0.035464 -3.325 204 182 121 1752393037
-1.21021 0.053196 -3.325 204 182 121 1752393037
-1.21021 0.070928 -3.325 204 182 121 1752393037
-1.21021 0.08866 -3.325 204 182 121 1752393037
-1.21021 0.106392 -3.325 204 182 121 1752393037
-1.21021 0.124125 -3.325 204 182 121 1752393037
-1.21021 0.141857 -3.325 204 182 121 1752393037
-1.21021 0.159589 -3.325 204 182 121 1752393037
-1.21021 0.177321 -3.325 204 182 121 1752393037
-1.21021 0.195053 -3.325 204 182 121 1752393037
-1.21021 0.212785 -3.325 204 182 121 1752393037
-1.21021 0.230517 -3.325 204 182 121 1752393037
-1.21021 0.248249 -3.325 204 182 121 1752393037
-1.21021 0.265981 -3.325 204 182 121 1752393037
-1.21021 0.283713 -3.325 204 182 121 1752393037
-1.21021 0.301445 -3.325 204 182 121 1752393037
-1.21021 0.319177 -3.325 204 182 121 1752393037
-1.21021 0.336909 -3.325 204 182 121 1752393037
-1.21021 0.354642 -3.325 204 182 121 1752393037
-1.21021 0.372374 -3.325 204 182 121 1752393037
-1.21021 0.390106 -3.325 204 182 121 1752393037
-1.21021 0.407838 -3.325 204 182 121 1752393037
-1.21021 0.42557 -3.325 204 182 121 1752393037
-1.21021 0.443302 -3.325 204 182 121 1752393037
-1.21021 0.461034 -3.325 204 182 121 1752393037
-1.21021 0.478766 -3.325 204 182 121 1752393037
-1.20571 0.49465 -3.31262 66 36 17 1752393037
-1.20571 0.512316 -3.31262 66 36 17 1752393037
-1.20571 0.529982 -3.31262 66 36 17 1752393037
-1.20571 0.547648 -3.31262 66 36 17 1752393037
-1.20571 0.565314 -3.31262 66 36 17 1752393037
-1.20571 0.58298 -3.31262 66 36 17 1752393037
-1.20571 0.600646 -3.31262 66 36 17 1752393037
-1.20571 0.618312 -3.31262 66 36 17 1752393037
-1.20571 0.635978 -3.31262 66 36 17 1752393037
-1.20571 0.653644 -3.31262 66 36 17 1752393037
-1.20571 0.67131 -3.31262 66 36 17 1752393037
-1.20571 0.688976 -3.31262 66 36 17 1752393037
-1.20571 0.706642 -3.31262 66 36 17 1752393037
-1.20571 0.724308 -3.31262 66 36 17 1752393037
-1.20571 0.741975 -3.31262 66 36 17 1752393037
-1.20571 0.75964 -3.31262 66 36 17 1752393037
-1.20571 0.777306 -3.31262 66 36 17 1752393037
-1.20571 0.794973 -3.31262 66 36 17 1752393037
-1.20571 0.812639 -3.31262 66 36 17 1752393037
-1.20571 0.830305 -3.31262 66 36 17 1752393037
-1.20571 0.847971 -3.31262 66 36 17 1752393037
-1.20571 0.865637 -3.31262 66 36 17 1752393037
-1.20571 0.883303 -3.31262 66 36 17 1752393037
-1.20571 0.900969 -3.31262 66 36 17 1752393037
-1.20571 0.918635 -3.31262 66 36 17 1752393037
-1.20571 0.936301 -3.31262 66 36 17 1752393037
-1.20571 0.953967 -3.31262 66 36 17 1752393037
-1.20571 0.971633 -3.31262 66 36 17 1752393037
-1.20571 0.989299 -3.31262 66 36 17 1752393037
-1.20571 1.00697 -3.31262 66 36 17 1752393037
-1.20571 1.02463 -3.31262 66 36 17 1752393037
-1.20571 1.0423 -3.31262 66 36 17 1752393037
-1.20571 1.05996 -3.31262 66 36 17 1752393037
-1.20571 1.07763 -3.31262 66 36 17 1752393037
-1.20571 1.0953 -3.31262 66 36 17 1752393037
-1.20571 1.11296 -3.31262 66 36 17 1752393037
-1.20571 1.13063 -3.31262 66 36 17 1752393037
-1.20571 1.14829 -3.31262 66 36 17 1752393037
-1.20571 1.16596 -3.31262 66 36 17 1752393037
-1.20571 1.18363 -3.31262 66 36 17 1752393037
-1.20571 1.20129 -3.31262 0 0 0 1752393037
-1.20571 1.21896 -3.31262 0 0 0 1752393037
-1.20571 1.23662 -3.31262 0 0 0 1752393037
-1.20571 1.25429 -3.31262 0 0 0 1752393037
-1.20571 1.27196 -3.31262 0 0 0 1752393037
-1.20571 1.28962 -3.31262 0 0 0 1752393037
-1.20571 1.30729 -3.31262 0 0 0 1752393037
-0.900001 -1 -2.50018 188 179 133 1752393037
-0.912163 -1 -2.53397 188 179 133 1752393037
-0.924658 -1 -2.56868 188 179 133 1752393037
-0.937501 -1 -2.60436 188 179 133 1752393037
-0.950705 -1 -2.64104 188 179 133 1752393037
-0.964287 -1 -2.67877 188 179 133 1752393037
-0.978262 -1 -2.71759 188 179 133 1752393037
-0.992648 -1 -2.75755 188 179 133 1752393037
-1.00746 -1 -2.79871 188 179 133 1752393037
-1.02273 -1 -2.84111 188 179 133 1752393037
-1.03846 -1 -2.88482 188 179 133 1752393037
-1.05469 -1 -2.9299 188 179 133 1752393037
-1.07143 -1 -2.97641 188 179 133 1752393037
-1.08871 -1 -3.02441 188 179 133 1752393037
-1.10656 -1 -3.07399 188 179 133 1752393037
-1.125 -1 -3.12523 188 179 133 1752393037
-1.14407 -1 -3.1782 188 179 133 1752393037
-1.16379 -1 -3.23299 188 179 133 1752393037
-1.18421 -1 -3.28971 188 179 133 1752393037
-1.19692 -0.992996 -3.325 204 182 121 1752393037
-1.19692 -0.975264 -3.325 204 182 121 1752393037
-1.19692 -0.957532 -3.325 204 182 121 1752393037
-1.19692 -0.9398 -3.325 204 182 121 1752393037
-1.19692 -0.922068 -3.325 204 182 121 1752393037
-1.19692 -0.904336 -3.325 204 182 121 1752393037
-1.19692 -0.886604 -3.325 204 182 121 1752393037
-1.19692 -0.868872 -3.325 204 182 121 1752393037
-1.19692 -0.85114 -3.325 204 182 121 1752393037
-1.19692 -0.833408 -3.325 204 182 121 1752393037
-1.19692 -0.815676 -3.325 204 182 121 1752393037
-1.19692 -0.797944 -3.325 204 182 121 1752393037
-1.19692 -0.780211 -3.325 204 182 121 1752393037
-1.19692 -0.762479 -3.325 204 182 121 1752393037
-1.19692 -0.744747 -3.325 204 182 121 1752393037
-1.19692 -0.727015 -3.325 204 182 121 1752393037
-1.19692 -0.709283 -3.325 204 182 121 1752393037
-1.19692 -0.691551 -3.325 204 182 121 1752393037
-1.19692 -0.673819 -3.325 204 182 121 1752393037
-1.19692 -0.656087 -3.325 204 182 121 1752393037
-1.19692 -0.638355 -3.325 204 182 121 1752393037
-1.19692 -0.620623 -3.325 204 182 121 1752393037
-1.19692 -0.602891 -3.325 204 182 121 1752393037
-1.19692 -0.585159 -3.325 204 182 121 1752393037
-1.19692 -0.567427 -3.325 204 182 121 1752393037
-1.19692 -0.549694 -3.325 204 182 121 1752393037
-1.19692 -0.531962 -3.325 204 182 121 1752393037
-1.19692 -0.51423 -3.325 204 182 121 1752393037
-1.19692 -0.496498 -3.325 204 182 121 1752393037
-1.19692 -0.478766 -3.325 204 182 121 1752393037
-1.19692 -0.461034 -3.325 204 182 121 1752393037
-1.19692 -0.443302 -3.325 204 182 121 1752393037
-1.19692 -0.42557 -3.325 204 182 121 1752393037
-1.19692 -0.407838 -3.325 204 182 121 1752393037
-1.19692 -0.390106 -3.325 204 182 121 1752393037
-1.19692 -0.372374 -3.325 204 182 121 1752393037
-1.19692 -0.354642 -3.325 204 182 121 1752393037
-1.19692 -0.33691 -3.325 204 182 121 1752393037
-1.19692 -0.319177 -3.325 204 182 121 1752393037
-1.19692 -0.301445 -3.325 204 182 121 1752393037
-1.19692 -0.283713 -3.325 204 182 121 1752393037
-1.19692 -0.265981 -3.325 204 182 121 1752393037
-1.19692 -0.248249 -3.325 204 182 121 1752393037
-1.19692 -0.230517 -3.325 204 182 121 1752393037
-1.19692 -0.212785 -3.325 204 182 121 1752393037
-1.19692 -0.195053 -3.325 204 182 121 1752393037
-1.19692 -0.177321 -3.325 204 182 121 1752393037
-1.19692 -0.159589 -3.325 204 182 121 1752393037
-1.19692 -0.141857 -3.325 204 182 121 1752393037
-1.19692 -0.124125 -3.325 204 182 121 1752393037
-1.19692 -0.106392 -3.325 204 182 121 1752393037
-1.19692 -0.08866 -3.325 204 182 121 1752393037
-1.19692 -0.070928 -3.325 204 182 121 1752393037
-1.19692 -0.053196 -3.325 204 182 121 1752393037
-1.19692 -0.035464 -3.325 204 182 121 1752393037
-1.19692 -0.017732 -3.325 204 182 121 1752393037
-1.19692 0 -3.325 204 182 121 1752393037
-1.19692 0.017732 -3.325 204 182 121 1752393037
-1.19692 0.035464 -3.325 204 182 121 1752393037
-1.19692 0.053196 -3.325 204 182 121 1752393037
-1.19692 0.070928 -3.325 204 182 121 1752393037
-1.19692 0.08866 -3.325 204 182 121 1752393037
-1.19692 0.106392 -3.325 204 182 121 1752393037
-1.19692 0.124125 -3.325 204 182 121 1752393037
-1.19692 0.141857 -3.325 204 182 121 1752393037
-1.19692 0.159589 -3.325 204 182 121 1752393037
-1.19692 0.177321 -3.325 204 182 121 1752393037
-1.19692 0.195053 -3.325 204 182 121 1752393037
-1.19692 0.212785 -3.325 204 182 121 1752393037
-1.19692 0.230517 -3.325 204 182 121 1752393037
-1.19692 0.248249 -3.325 204 182 121 1752393037
-1.19692 0.265981 -3.325 204 182 121 1752393037
-1.19692 0.283713 -3.325 204 182 121 1752393037
-1.19692 0.301445 -3.325 204 182 121 1752393037
-1.19692 0.319177 -3.325 204 182 121 1752393037
-1.19692 0.33691 -3.325 204 182 121 1752393037
-1.19692 0.354642 -3.325 204 182 121 1752393037
-1.19692 0.372374 -3.325 204 182 121 1752393037
-1.19692 0.390106 -3.325 204 182 121 1752393037
-1.19692 0.407838 -3.325 204 182 121 1752393037
-1.19692 0.42557 -3.325 204 182 121 1752393037
-1.19692 0.443302 -3.325 204 182 121 1752393037
-1.19692 0.461034 -3.325 204 182 121 1752393037
-1.19692 0.478766 -3.325 204 182 121 1752393037
-1.19246 0.49465 -3.31262 66 36 17 1752393037
-1.19246 0.512316 -3.31262 66 36 17 1752393037
-1.19246 0.529982 -3.31262 66 36 17 1752393037
-1.19246 0.547648 -3.31262 66 36 17 1752393037
-1.19246 0.565314 -3.31262 66 36 17 1752393037
-1.19246 0.58298 -3.31262 66 36 17 1752393037
-1.19246 0.600646 -3.31262 66 36 17 1752393037
-1.19246 0.618312 -3.31262 66 36 17 1752393037
-1.19246 0.635978 -3.31262 66 36 17 1752393037
-1.19246 0.653644 -3.31262 66 36 17 1752393037
-1.19246 0.67131 -3.31262 66 36 17 1752393037
-1.19246 0.688976 -3.31262 66 36 17 1752393037
-1.19246 0.706642 -3.31262 66 36 17 1752393037
-1.19246 0.724308 -3.31262 66 36 17 1752393037
-1.19246 0.741974 -3.31262 66 36 17 1752393037
-1.19246 0.759641 -3.31262 66 36 17 1752393037
-1.19246 0.777306 -3.31262 66 36 17 1752393037
-1.19246 0.794973 -3.31262 66 36 17 1752393037
-1.19246 0.812639 -3.31262 66 36 17 1752393037
-1.19246 0.830305 -3.31262 66 36 17 1752393037
-1.19246 0.847971 -3.31262 66 36 17 1752393037
-1.19246 0.865637 -3.31262 66 36 17 1752393037
-1.19246 0.883303 -3.31262 66 36 17 1752393037
-1.19246 0.900969 -3.31262 66 36 17 1752393037
-1.19246 0.918635 -3.31262 66 36 17 1752393037
-1.19246 0.936301 -3.31262 66 36 17 1752393037
-1.19246 0.953967 -3.31262 66 36 17 1752393037
-1.19246 0.971633 -3.31262 66 36 17 1752393037
-1.19246 0.989299 -3.31262 66 36 17 1752393037
-1.19246 1.00697 -3.31262 66 36 17 1752393037
-1.19246 1.02463 -3.31262 66 36 17 1752393037
-1.19246 1.0423 -3.31262 66 36 17 1752393037
-1.19246 1.05996 -3.31262 66 36 17 1752393037
-1.19246 1.07763 -3.31262 66 36 17 1752393037
-1.19246 1.0953 -3.31262 66 36 17 1752393037
-1.19246 1.11296 -3.31262 66 36 17 1752393037
-1.19246 1.13063 -3.31262 66 36 17 1752393037
-1.19246 1.14829 -3.31262 66 36 17 1752393037
-1.19246 1.16596 -3.31262 66 36 17 1752393037
-1.19246 1.18363 -3.31262 0 0 0 1752393037
-1.19246 1.20129 -3.31262 0 0 0 1752393037
-1.19246 1.21896 -3.31262 0 0 0 1752393037
-1.19246 1.23662 -3.31262 0 0 0 1752393037
-1.19246 1.25429 -3.31262 0 0 0 1752393037
-1.19246 1.27196 -3.31262 0 0 0 1752393037
-1.19246 1.28962 -3.31262 0 0 0 1752393037
-1.19246 1.30729 -3.31262 0 0 0 1752393037
-0.890001 -1 -2.50018 188 179 133 1752393037
-0.902028 -1 -2.53397 188 179 133 1752393037
-0.914384 -1 -2.56868 188 179 133 1752393037
-0.927084 -1 -2.60436 188 179 133 1752393037
-0.940142 -1 -2.64104 188 179 133 1752393037
-0.953572 -1 -2.67877 188 179 133 1752393037
-0.967392 -1 -2.71759 188 179 133 1752393037
-0.981619 -1 -2.75755 188 179 133 1752393037
-0.99627 -1 -2.79871 188 179 133 1752393037
-1.01137 -1 -2.84111 188 179 133 1752393037
-1.02692 -1 -2.88482 188 179 133 1752393037
-1.04297 -1 -2.9299 188 179 133 1752393037
-1.05953 -1 -2.9764 188 179 133 1752393037
-1.07661 -1 -3.02441 188 179 133 1752393037
-1.09426 -1 -3.07399 188 179 133 1752393037
-1.1125 -1 -3.12523 188 179 133 1752393037
-1.13136 -1 -3.1782 188 179 133 1752393037
-1.15086 -1 -3.23299 188 179 133 1752393037
-1.17105 -1 -3.28971 188 179 133 1752393037
-1.18362 -0.992996 -3.325 204 182 121 1752393037
-1.18362 -0.975264 -3.325 204 182 121 1752393037
-1.18362 -0.957532 -3.325 204 182 121 1752393037
-1.18362 -0.9398 -3.325 204 182 121 1752393037
-1.18362 -0.922068 -3.325 204 182 121 1752393037
-1.18362 -0.904336 -3.325 204 182 121 1752393037
-1.18362 -0.886604 -3.325 204 182 121 1752393037
-1.18362 -0.868872 -3.325 204 182 121 1752393037
-1.18362 -0.85114 -3.325 204 182 121 1752393037
-1.18362 -0.833408 -3.325 204 182 121 1752393037
-1.18362 -0.815676 -3.325 204 182 121 1752393037
-1.18362 -0.797944 -3.325 204 182 121 1752393037
-1.18362 -0.780211 -3.325 204 182 121 1752393037
-1.18362 -0.762479 -3.325 204 182 121 1752393037
-1.18362 -0.744747 -3.325 204 182 121 1752393037
-1.18362 -0.727015 -3.325 204 182 121 1752393037
-1.18362 -0.709283 -3.325 204 182 121 1752393037
-1.18362 -0.691551 -3.325 204 182 121 1752393037
-1.18362 -0.673819 -3.325 204 182 121 1752393037
-1.18362 -0.656087 -3.325 204 182 121 1752393037
-1.18362 -0.638355 -3.325 204 182 121 1752393037
-1.18362 -0.620623 -3.325 204 182 121 1752393037
-1.18362 -0.602891 -3.325 204 182 121 1752393037
-1.18362 -0.585159 -3.325 204 182 121 1752393037
-1.18362 -0.567427 -3.325 204 182 121 1752393037
-1.18362 -0.549694 -3.325 204 182 121 1752393037
-1.18362 -0.531962 -3.325 204 182 121 1752393037
-1.18362 -0.51423 -3.325 204 182 121 1752393037
-1.18362 -0.496498 -3.325 204 182 121 1752393037
-1.18362 -0.478766 -3.325 204 182 121 1752393037
-1.18362 -0.461034 -3.325 204 182 121 1752393037
-1.18362 -0.443302 -3.325 204 182 121 1752393037
-1.18362 -0.42557 -3.325 204 182 121 1752393037
-1.18362 -0.407838 -3.325 204 182 121 1752393037
-1.18362 -0.390106 -3.325 204 182 121 1752393037
-1.18362 -0.372374 -3.325 204 182 121 1752393037
-1.18362 -0.354642 -3.325 204 182 121 1752393037
-1.18362 -0.33691 -3.325 204 182 121 1752393037
-1.18362 -0.319177 -3.325 204 182 121 1752393037
-1.18362 -0.301445 -3.325 204 182 121 1752393037
-1.18362 -0.283713 -3.325 204 182 121 1752393037
-1.18362 -0.265981 -3.325 204 182 121 1752393037
-1.18362 -0.248249 -3.325 204 182 121 1752393037
-1.18362 -0.230517 -3.325 204 182 121 1752393037
-1.18362 -0.212785 -3.325 204 182 121 1752393037
-1.18362 -0.195053 -3.325 204 182 121 1752393037
-1.18362 -0.177321 -3.325 204 182 121 1752393037
-1.18362 -0.159589 -3.325 204 182 121 1752393037
-1.18362 -0.141857 -3.325 204 182 121 1752393037
-1.18362 -0.124125 -3.325 204 182 121 1752393037
-1.18362 -0.106392 -3.325 204 182 121 1752393037
-1.18362 -0.08866 -3.325 204 182 121 1752393037
-1.18362 -0.070928 -3.325 204 182 121 1752393037
-1.18362 -0.053196 -3.325 204 182 121 1752393037
-1.18362 -0.035464 -3.325 204 182 121 1752393037
-1.18362 -0.017732 -3.325 204 182 121 1752393037
-1.18362 0 -3.325 204 182 121 1752393037
-1.18362 0.017732 -3.325 204 182 121 1752393037
-1.18362 0.035464 -3.325 204 182 121 1752393037
-1.18362 0.053196 -3.325 204 182 121 1752393037
-1.18362 0.070928 -3.325 204 182 121 1752393037
-1.18362 0.08866 -3.325 204 182 121 1752393037
-1.18362 0.106392 -3.325 204 182 121 1752393037
-1.18362 0.124125 -3.325 204 182 121 1752393037
-1.18362 0.141857 -3.325 204 182 121 1752393037
-1.18362 0.159589 -3.325 204 182 121 1752393037
-1.18362 0.177321 -3.325 204 182 121 1752393037
-1.18362 0.195053 -3.325 204 182 121 1752393037
-1.18362 0.212785 -3.325 204 182 121 1752393037
-1.18362 0.230517 -3.325 204 182 121 1752393037
-1.18362 0.248249 -3.325 204 182 121 1752393037
-1.18362 0.265981 -3.325 204 182 121 1752393037
-1.18362 0.283713 -3.325 204 182 121 1752393037
-1.18362 0.301445 -3.325 204 182 121 1752393037
-1.18362 0.319177 -3.325 204 182 121 1752393037
-1.18362 0.33691 -3.325 204 182 121 1752393037
-1.18362 0.354642 -3.325 204 182 121 1752393037
-1.18362 0.372374 -3.325 204 182 121 1752393037
-1.18362 0.390106 -3.325 204 182 121 1752393037
-1.18362 0.407838 -3.325 204 182 121 1752393037
-1.18362 0.42557 -3.325 204 182 121 1752393037
-1.18362 0.443302 -3.325 204 182 121 1752393037
-1.18362 0.461034 -3.325 204 182 121 1752393037
-1.18362 0.478766 -3.325 204 182 121 1752393037
-1.17921 0.49465 -3.31262 66 36 17 1752393037
-1.17921 0.512316 -3.31262 66 36 17 1752393037
-1.17921 0.529982 -3.31262 66 36 17 1752393037
-1.17921 0.547648 -3.31262 66 36 17 1752393037
-1.17921 0.565314 -3.31262 66 36 17 1752393037
-1.17921 0.58298 -3.31262 66 36 17 1752393037
-1.17921 0.600646 -3.31262 66 36 17 1752393037
-1.17921 0.618312 -3.31262 66 36 17 1752393037
-1.17921 0.635978 -3.31262 66 36 17 1752393037
-1.17921 0.653644 -3.31262 66 36 17 1752393037
-1.17921 0.67131 -3.31262 66 36 17 1752393037
-1.17921 0.688976 -3.31262 66 36 17 1752393037
-1.17921 0.706642 -3.31262 66 36 17 1752393037
-1.17921 0.724308 -3.31262 66 36 17 1752393037
-1.17921 0.741974 -3.31262 66 36 17 1752393037
-1.17921 0.75964 -3.31262 66 36 17 1752393037
-1.17921 0.777307 -3.31262 66 36 17 1752393037
-1.17921 0.794973 -3.31262 66 36 17 1752393037
-1.17921 0.812639 -3.31262 66 36 17 1752393037
-1.17921 0.830305 -3.31262 66 36 17 1752393037
-1.17921 0.847971 -3.31262 66 36 17 1752393037
-1.17921 0.865637 -3.31262 66 36 17 1752393037
-1.17921 0.883303 -3.31262 66 36 17 1752393037
-1.17921 0.900969 -3.31262 66 36 17 1752393037
-1.17921 0.918635 -3.31262 66 36 17 1752393037
-1.17921 0.936301 -3.31262 66 36 17 1752393037
-1.17921 0.953967 -3.31262 66 36 17 1752393037
-1.17921 0.971633 -3.31262 66 36 17 1752393037
-1.17921 0.989299 -3.31262 66 36 17 1752393037
-1.17921 1.00697 -3.31262 66 36 17 1752393037
-1.17921 1.02463 -3.31262 66 36 17 1752393037
-1.17921 1.0423 -3.31262 66 36 17 1752393037
-1.17921 1.05996 -3.31262 66 36 17 1752393037
-1.17921 1.07763 -3.31262 66 36 17 1752393037
-1.17921 1.0953 -3.31262 66 36 17 1752393037
-1.17921 1.11296 -3.31262 66 36 17 1752393037
-1.17921 1.13063 -3.31262 66 36 17 1752393037
-1.17921 1.14829 -3.31262 66 36 17 1752393037
-1.17921 1.16596 -3.31262 66 36 17 1752393037
-1.17921 1.18363 -3.31262 0 0 0 1752393037
-1.17921 1.20129 -3.31262 0 0 0 1752393037
-1.17921 1.21896 -3.31262 0 0 0 1752393037
-1.17921 1.23662 -3.31262 0 0 0 1752393037
-1.17921 1.25429 -3.31262 0 0 0 1752393037
-1.17921 1.27196 -3.31262 0 0 0 1752393037
-1.17921 1.28962 -3.31262 0 0 0 1752393037
-1.17921 1.30729 -3.31262 0 0 0 1752393037
-0.880001 -1 -2.50018 188 179 133 1752393037
-0.891893 -1 -2.53397 188 179 133 1752393037
-0.90411 -1 -2.56868 188 179 133 1752393037
-0.916668 -1 -2.60436 188 179 133 1752393037
-0.929578 -1 -2.64104 188 179 133 1752393037
-0.942858 -1 -2.67877 188 179 133 1752393037
-0.956523 -1 -2.71759 188 179 133 1752393037
-0.970589 -1 -2.75755 188 179 133 1752393037
-0.985075 -1 -2.79871 188 179 133 1752393037
-1 -1 -2.84111 188 179 133 1752393037
-1.01539 -1 -2.88482 188 179 133 1752393037
-1.03125 -1 -2.9299 188 179 133 1752393037
-1.04762 -1 -2.97641 188 179 133 1752393037
-1.06452 -1 -3.02441 188 179 133 1752393037
-1.08197 -1 -3.07399 188 179 133 1752393037
-1.1 -1 -3.12523 188 179 133 1752393037
-1.11864 -1 -3.1782 188 179 133 1752393037
-1.13793 -1 -3.23299 188 179 133 1752393037
-1.1579 -1 -3.28971 188 179 133 1752393037
-1.17032 -0.992996 -3.325 204 182 121 1752393037
-1.17032 -0.975264 -3.325 204 182 121 1752393037
-1.17032 -0.957532 -3.325 204 182 121 1752393037
-1.17032 -0.9398 -3.325 204 182 121 1752393037
-1.17032 -0.922068 -3.325 204 182 121 1752393037
-1.17032 -0.904336 -3.325 204 182 121 1752393037
-1.17032 -0.886604 -3.325 204 182 121 1752393037
-1.17032 -0.868872 -3.325 204 182 121 1752393037
-1.17032 -0.85114 -3.325 204 182 121 1752393037
-1.17032 -0.833408 -3.325 204 182 121 1752393037
-1.17032 -0.815676 -3.325 204 182 121 1752393037
-1.17032 -0.797944 -3.325 204 182 121 1752393037
-1.17032 -0.780211 -3.325 204 182 121 1752393037
-1.17032 -0.762479 -3.325 204 182 121 1752393037
-1.17032 -0.744747 -3.325 204 182 121 1752393037
-1.17032 -0.727015 -3.325 204 182 121 1752393037
-1.17032 -0.709283 -3.325 204 182 121 1752393037
-1.17032 -0.691551 -3.325 204 182 121 1752393037
-1.17032 -0.673819 -3.325 204 182 121 1752393037
-1.17032 -0.656087 -3.325 204 182 121 1752393037
-1.17032 -0.638355 -3.325 204 182 121 1752393037
-1.17032 -0.620623 -3.325 204 182 121 1752393037
-1.17032 -0.602891 -3.325 204 182 121 1752393037
-1.17032 -0.585159 -3.325 204 182 121 1752393037
-1.17032 -0.567427 -3.325 204 182 121 1752393037
-1.17032 -0.549694 -3.325 204 182 121 1752393037
-1.17032 -0.531962 -3.325 204 182 121 1752393037
-1.17032 -0.51423 -3.325 204 182 121 1752393037
-1.17032 -0.496498 -3.325 204 182 121 1752393037
-1.17032 -0.478766 -3.325 204 182 121 1752393037
-1.17032 -0.461034 -3.325 204 182 121 1752393037
-1.17032 -0.443302 -3.325 204 182 121 1752393037
-1.17032 -0.42557 -3.325 204 182 121 1752393037
-1.17032 -0.407838 -3.325 204 182 121 1752393037
-1.17032 -0.390106 -3.325 204 182 121 1752393037
-1.17032 -0.372374 -3.325 204 182 121 1752393037
-1.17032 -0.354642 -3.325 204 182 121 1752393037
-1.17032 -0.33691 -3.325 204 182 121 1752393037
-1.17032 -0.319177 -3.325 204 182 121 1752393037
-1.17032 -0.301445 -3.325 204 182 121 1752393037
-1.17032 -0.283713 -3.325 204 182 121 1752393037
-1.17032 -0.265981 -3.325 204 182 121 1752393037
-1.17032 -0.248249 -3.325 204 182 121 1752393037
-1.17032 -0.230517 -3.325 204 182 121 1752393037
-1.17032 -0.212785 -3.325 204 182 121 1752393037
-1.17032 -0.195053 -3.325 204 182 121 1752393037
-1.17032 -0.177321 -3.325 204 182 121 1752393037
-1.17032 -0.159589 -3.325 204 182 121 1752393037
-1.17032 -0.141857 -3.325 204 182 121 1752393037
-1.17032 -0.124125 -3.325 204 182 121 1752393037
-1.17032 -0.106392 -3.325 204 182 121 1752393037
-1.17032 -0.08866 -3.325 204 182 121 1752393037
-1.17032 -0.070928 -3.325 204 182 121 1752393037
-1.17032 -0.053196 -3.325 204 182 121 1752393037
-1.17032 -0.035464 -3.325 204 182 121 1752393037
-1.17032 -0.017732 -3.325 204 182 121 1752393037
-1.17032 0 -3.325 204 182 121 1752393037
-1.17032 0.017732 -3.325 204 182 121 1752393037
-1.17032 0.035464 -3.325 204 182 121 1752393037
-1.17032 0.053196 -3.325 204 182 121 1752393037
-1.17032 0.070928 -3.325 204 182 121 1752393037
-1.17032 0.08866 -3.325 204 182 121 1752393037
-1.17032 0.106392 -3.325 204 182 121 1752393037
-1.17032 0.124125 -3.325 204 182 121 1752393037
-1.17032 0.141857 -3.325 204 182 121 1752393037
-1.17032 0.159589 -3.325 204 182 121 1752393037
-1.17032 0.177321 -3.325 204 182 121 1752393037
-1.17032 0.195053 -3.325 204 182 121 1752393037
-1.17032 0.212785 -3.325 204 182 121 1752393037
-1.17032 0.230517 -3.325 204 182 121 1752393037
-1.17032 0.248249 -3.325 204 182 121 1752393037
-1.17032 0.265981 -3.325 204 182 121 1752393037
-1.17032 0.283713 -3.325 204 182 121 1752393037
-1.17032 0.301445 -3.325 204 182 121 1752393037
-1.17032 0.319177 -3.325 204 182 121 1752393037
-1.17032 0.33691 -3.325 204 182 121 1752393037
-1.17032 0.354642 -3.325 204 182 121 1752393037
-1.17032 0.372374 -3.325 204 182 121 1752393037
-1.17032 0.390106 -3.325 204 182 121 1752393037
-1.17032 0.407838 -3.325 204 182 121 1752393037
-1.17032 0.42557 -3.325 204 182 121 1752393037
-1.17032 0.443302 -3.325 204 182 121 1752393037
-1.17032 0.461034 -3.325 204 182 121 1752393037
-1.17032 0.478766 -3.325 204 182 121 1752393037
-1.16596 0.49465 -3.31262 66 36 17 1752393037
-1.16596 0.512316 -3.31262 66 36 17 1752393037
-1.16596 0.529982 -3.31262 66 36 17 1752393037
-1.16596 0.547648 -3.31262 66 36 17 1752393037
-1.16596 0.565314 -3.31262 66 36 17 1752393037
-1.16596 0.58298 -3.31262 66 36 17 1752393037
-1.16596 0.600646 -3.31262 66 36 17 1752393037
-1.16596 0.618312 -3.31262 66 36 17 1752393037
-1.16596 0.635978 -3.31262 66 36 17 1752393037
-1.16596 0.653644 -3.31262 66 36 17 1752393037
-1.16596 0.67131 -3.31262 66 36 17 1752393037
-1.16596 0.688976 -3.31262 66 36 17 1752393037
-1.16596 0.706642 -3.31262 66 36 17 1752393037
-1.16596 0.724308 -3.31262 66 36 17 1752393037
-1.16596 0.741975 -3.31262 66 36 17 1752393037
-1.16596 0.759641 -3.31262 66 36 17 1752393037
-1.16596 0.777307 -3.31262 66 36 17 1752393037
-1.16596 0.794973 -3.31262 66 36 17 1752393037
-1.16596 0.812639 -3.31262 66 36 17 1752393037
-1.16596 0.830305 -3.31262 66 36 17 1752393037
-1.16596 0.847971 -3.31262 66 36 17 1752393037
-1.16596 0.865637 -3.31262 66 36 17 1752393037
-1.16596 0.883303 -3.31262 66 36 17 1752393037
-1.16596 0.900969 -3.31262 66 36 17 1752393037
-1.16596 0.918635 -3.31262 66 36 17 1752393037
-1.16596 0.936301 -3.31262 66 36 17 1752393037
-1.16596 0.953967 -3.31262 66 36 17 1752393037
-1.16596 0.971633 -3.31262 66 36 17 1752393037
-1.16596 0.989299 -3.31262 66 36 17 1752393037
-1.16596 1.00697 -3.31262 66 36 17 1752393037
-1.16596 1.02463 -3.31262 66 36 17 1752393037
-1.16596 1.0423 -3.31262 66 36 17 1752393037
-1.16596 1.05996 -3.31262 66 36 17 1752393037
-1.16596 1.07763 -3.31262 66 36 17 1752393037
-1.16596 1.0953 -3.31262 66 36 17 1752393037
-1.16596 1.11296 -3.31262 66 36 17 1752393037
-1.16596 1.13063 -3.31262 66 36 17 1752393037
-1.16596 1.14829 -3.31262 66 36 17 1752393037
-1.16596 1.16596 -3.31262 0 0 0 1752393037
-1.16596 1.18363 -3.31262 0 0 0 1752393037
-1.16596 1.20129 -3.31262 0 0 0 1752393037
-1.16596 1.21896 -3.31262 0 0 0 1752393037
-1.16596 1.23662 -3.31262 0 0 0 1752393037
-1.16596 1.25429 -3.31262 0 0 0 1752393037
-1.16596 1.27196 -3.31262 0 0 0 1752393037
-1.16596 1.28962 -3.31262 0 0 0 1752393037
-1.16596 1.30729 -3.31262 0 0 0 1752393037
-0.870001 -1 -2.50018 188 179 133 1752393037
-0.881757 -1 -2.53397 188 179 133 1752393037
-0.893836 -1 -2.56868 188 179 133 1752393037
-0.906251 -1 -2.60436 188 179 133 1752393037
-0.919015 -1 -2.64104 188 179 133 1752393037
-0.932144 -1 -2.67877 188 179 133 1752393037
-0.945653 -1 -2.71759 188 179 133 1752393037
-0.95956 -1 -2.75755 188 179 133 1752393037
-0.973882 -1 -2.79871 188 179 133 1752393037
-0.988637 -1 -2.84111 188 179 133 1752393037
-1.00385 -1 -2.88482 188 179 133 1752393037
-1.01953 -1 -2.9299 188 179 133 1752393037
-1.03571 -1 -2.97641 188 179 133 1752393037
-1.05242 -1 -3.02441 188 179 133 1752393037
-1.06967 -1 -3.07399 188 179 133 1752393037
-1.0875 -1 -3.12523 188 179 133 1752393037
-1.10593 -1 -3.1782 188 179 133 1752393037
-1.125 -1 -3.23299 188 179 133 1752393037
-1.14474 -1 -3.28971 188 179 133 1752393037
-1.15702 -0.992996 -3.325 204 182 121 1752393037
-1.15702 -0.975264 -3.325 204 182 121 1752393037
-1.15702 -0.957532 -3.325 204 182 121 1752393037
-1.15702 -0.9398 -3.325 204 182 121 1752393037
-1.15702 -0.922068 -3.325 204 182 121 1752393037
-1.15702 -0.904336 -3.325 204 182 121 1752393037
-1.15702 -0.886604 -3.325 204 182 121 1752393037
-1.15702 -0.868872 -3.325 204 182 121 1752393037
-1.15702 -0.85114 -3.325 204 182 121 1752393037
-1.15702 -0.833408 -3.325 204 182 121 1752393037
-1.15702 -0.815676 -3.325 204 182 121 1752393037
-1.15702 -0.797944 -3.325 204 182 121 1752393037
-1.15702 -0.780211 -3.325 204 182 121 1752393037
-1.15702 -0.762479 -3.325 204 182 121 1752393037
-1.15702 -0.744747 -3.325 204 182 121 1752393037
-1.15702 -0.727015 -3.325 204 182 121 1752393037
-1.15702 -0.709283 -3.325 204 182 121 1752393037
-1.15702 -0.691551 -3.325 204 182 121 1752393037
-1.15702 -0.673819 -3.325 204 182 121 1752393037
-1.15702 -0.656087 -3.325 204 182 121 1752393037
-1.15702 -0.638355 -3.325 204 182 121 1752393037
-1.15702 -0.620623 -3.325 204 182 121 1752393037
-1.15702 -0.602891 -3.325 204 182 121 1752393037
-1.15702 -0.585159 -3.325 204 182 121 1752393037
-1.15702 -0.567427 -3.325 204 182 121 1752393037
-1.15702 -0.549694 -3.325 204 182 121 1752393037
-1.15702 -0.531962 -3.325 204 182 121 1752393037
-1.15702 -0.51423 -3.325 204 182 121 1752393037
-1.15702 -0.496498 -3.325 204 182 121 1752393037
-1.15702 -0.478766 -3.325 204 182 121 1752393037
-1.15702 -0.461034 -3.325 204 182 121 1752393037
-1.15702 -0.443302 -3.325 204 182 121 1752393037
-1.15702 -0.42557 -3.325 204 182 121 1752393037
-1.15702 -0.407838 -3.325 204 182 121 1752393037
-1.15702 -0.390106 -3.325 204 182 121 1752393037
-1.15702 -0.372374 -3.325 204 182 121 1752393037
-1.15702 -0.354642 -3.325 204 182 121 1752393037
-1.15702 -0.33691 -3.325 204 182 121 1752393037
-1.15702 -0.319177 -3.325 204 182 121 1752393037
-1.15702 -0.301445 -3.325 204 182 121 1752393037
-1.15702 -0.283713 -3.325 204 182 121 1752393037
-1.15702 -0.265981 -3.325 204 182 121 1752393037
-1.15702 -0.248249 -3.325 204 182 121 1752393037
-1.15702 -0.230517 -3.325 204 182 121 1752393037
-1.15702 -0.212785 -3.325 204 182 121 1752393037
-1.15702 -0.195053 -3.325 204 182 121 1752393037
-1.15702 -0.177321 -3.325 204 182 121 1752393037
-1.15702 -0.159589 -3.325 204 182 121 1752393037
-1.15702 -0.141857 -3.325 204 182 121 1752393037
-1.15702 -0.124125 -3.325 204 182 121 1752393037
-1.15702 -0.106392 -3.325 204 182 121 1752393037
-1.15702 -0.08866 -3.325 204 182 121 1752393037
-1.15702 -0.070928 -3.325 204 182 121 1752393037
-1.15702 -0.053196 -3.325 204 182 121 1752393037
-1.15702 -0.035464 -3.325 204 182 121 1752393037
-1.15702 -0.017732 -3.325 204 182 121 1752393037
-1.15702 0 -3.325 204 182 121 1752393037
-1.15702 0.017732 -3.325 204 182 121 1752393037
-1.15702 0.035464 -3.325 204 182 121 1752393037
-1.15702 0.053196 -3.325 204 182 121 1752393037
-1.15702 0.070928 -3.325 204 182 121 1752393037
-1.15702 0.08866 -3.325 204 182 121 1752393037
-1.15702 0.106392 -3.325 204 182 121 1752393037
-1.15702 0.124125 -3.325 204 182 121 1752393037
-1.15702 0.141857 -3.325 204 182 121 1752393037
-1.15702 0.159589 -3.325 204 182 121 1752393037
-1.15702 0.177321 -3.325 204 182 121 1752393037
-1.15702 0.195053 -3.325 204 182 121 1752393037
-1.15702 0.212785 -3.325 204 182 121 1752393037
-1.15702 0.230517 -3.325 204 182 121 1752393037
-1.15702 0.248249 -3.325 204 182 121 1752393037
-1.15702 0.265981 -3.325 204 182 121 1752393037
-1.15702 0.283713 -3.325 204 182 121 1752393037
-1.15702 0.301445 -3.325 204 182 121 1752393037
-1.15702 0.319177 -3.325 204 182 121 1752393037
-1.15702 0.33691 -3.325 204 182 121 1752393037
-1.15702 0.354642 -3.325 204 182 121 1752393037
-1.15702 0.372374 -3.325 204 182 121 1752393037
-1.15702 0.390106 -3.325 204 182 121 1752393037
-1.15702 0.407838 -3.325 204 182 121 1752393037
-1.15702 0.42557 -3.325 204 182 121 1752393037
-1.15702 0.443302 -3.325 204 182 121 1752393037
-1.15702 0.461034 -3.325 204 182 121 1752393037
-1.15702 0.478766 -3.325 204 182 121 1752393037
-1.15271 0.49465 -3.31262 66 36 17 1752393037
-1.15271 0.512316 -3.31262 66 36 17 1752393037
-1.15271 0.529982 -3.31262 66 36 17 1752393037
-1.15271 0.547648 -3.31262 66 36 17 1752393037
-1.15271 0.565314 -3.31262 66 36 17 1752393037
-1.15271 0.58298 -3.31262 66 36 17 1752393037
-1.15271 0.600646 -3.31262 66 36 17 1752393037
-1.15271 0.618312 -3.31262 66 36 17 1752393037
-1.15271 0.635978 -3.31262 66 36 17 1752393037
-1.15271 0.653644 -3.31262 66 36 17 1752393037
-1.15271 0.67131 -3.31262 66 36 17 1752393037
-1.15271 0.688976 -3.31262 66 36 17 1752393037
-1.15271 0.706642 -3.31262 66 36 17 1752393037
-1.15271 0.724308 -3.31262 66 36 17 1752393037
-1.15271 0.741975 -3.31262 66 36 17 1752393037
-1.15271 0.75964 -3.31262 66 36 17 1752393037
-1.15271 0.777307 -3.31262 66 36 17 1752393037
-1.15271 0.794973 -3.31262 66 36 17 1752393037
-1.15271 0.812639 -3.31262 66 36 17 1752393037
-1.15271 0.830305 -3.31262 66 36 17 1752393037
-1.15271 0.847971 -3.31262 66 36 17 1752393037
-1.15271 0.865637 -3.31262 66 36 17 1752393037
-1.15271 0.883303 -3.31262 66 36 17 1752393037
-1.15271 0.900969 -3.31262 66 36 17 1752393037
-1.15271 0.918635 -3.31262 66 36 17 1752393037
-1.15271 0.936301 -3.31262 66 36 17 1752393037
-1.15271 0.953967 -3.31262 66 36 17 1752393037
-1.15271 0.971633 -3.31262 66 36 17 1752393037
-1.15271 0.989299 -3.31262 66 36 17 1752393037
-1.15271 1.00697 -3.31262 66 36 17 1752393037
-1.15271 1.02463 -3.31262 66 36 17 1752393037
-1.15271 1.0423 -3.31262 66 36 17 1752393037
-1.15271 1.05996 -3.31262 66 36 17 1752393037
-1.15271 1.07763 -3.31262 66 36 17 1752393037
-1.15271 1.0953 -3.31262 66 36 17 1752393037
-1.15271 1.11296 -3.31262 66 36 17 1752393037
-1.15271 1.13063 -3.31262 66 36 17 1752393037
-1.15271 1.14829 -3.31262 0 0 0 1752393037
-1.15271 1.16596 -3.31262 0 0 0 1752393037
-1.15271 1.18363 -3.31262 0 0 0 1752393037
-1.15271 1.20129 -3.31262 0 0 0 1752393037
-1.15271 1.21896 -3.31262 0 0 0 1752393037
-1.15271 1.23662 -3.31262 0 0 0 1752393037
-1.15271 1.25429 -3.31262 0 0 0 1752393037
-1.15271 1.27196 -3.31262 0 0 0 1752393037
-1.15271 1.28962 -3.31262 0 0 0 1752393037
-1.15271 1.30729 -3.31262 0 0 0 1752393037
-0.860001 -1 -2.50018 188 179 133 1752393037
-0.871622 -1 -2.53397 188 179 133 1752393037
-0.883562 -1 -2.56868 188 179 133 1752393037
-0.895834 -1 -2.60436 188 179 133 1752393037
-0.908451 -1 -2.64104 188 179 133 1752393037
-0.921429 -1 -2.67877 188 179 133 1752393037
-0.934784 -1 -2.71759 188 179 133 1752393037
-0.94853 -1 -2.75755 188 179 133 1752393037
-0.962687 -1 -2.79871 188 179 133 1752393037
-0.977274 -1 -2.84111 188 179 133 1752393037
-0.992308 -1 -2.88482 188 179 133 1752393037
-1.00781 -1 -2.9299 188 179 133 1752393037
-1.02381 -1 -2.97641 188 179 133 1752393037
-1.04032 -1 -3.02441 188 179 133 1752393037
-1.05738 -1 -3.07399 188 179 133 1752393037
-1.075 -1 -3.12523 188 179 133 1752393037
-1.09322 -1 -3.1782 188 179 133 1752393037
-1.11207 -1 -3.23299 188 179 133 1752393037
-1.13158 -1 -3.28971 188 179 133 1752393037
-1.14372 -0.992996 -3.325 204 182 121 1752393037
-1.14372 -0.975264 -3.325 204 182 121 1752393037
-1.14372 -0.957532 -3.325 204 182 121 1752393037
-1.14372 -0.9398 -3.325 204 182 121 1752393037
-1.14372 -0.922068 -3.325 204 182 121 1752393037
-1.14372 -0.904336 -3.325 204 182 121 1752393037
-1.14372 -0.886604 -3.325 204 182 121 1752393037
-1.14372 -0.868872 -3.325 204 182 121 1752393037
-1.14372 -0.85114 -3.325 204 182 121 1752393037
-1.14372 -0.833408 -3.325 204 182 121 1752393037
-1.14372 -0.815676 -3.325 204 182 121 1752393037
-1.14372 -0.797944 -3.325 204 182 121 1752393037
-1.14372 -0.780211 -3.325 204 182 121 1752393037
-1.14372 -0.762479 -3.325 204 182 121 1752393037
-1.14372 -0.744747 -3.325 204 182 121 1752393037
-1.14372 -0.727015 -3.325 204 182 121 1752393037
-1.14372 -0.709283 -3.325 204 182 121 1752393037
-1.14372 -0.691551 -3.325 204 182 121 1752393037
-1.14372 -0.673819 -3.325 204 182 121 1752393037
-1.14372 -0.656087 -3.325 204 182 121 1752393037
-1.14372 -0.638355 -3.325 204 182 121 1752393037
-1.14372 -0.620623 -3.325 204 182 121 1752393037
-1.14372 -0.602891 -3.325 204 182 121 1752393037
-1.14372 -0.585159 -3.325 204 182 121 1752393037
-1.14372 -0.567427 -3.325 204 182 121 1752393037
-1.14372 -0.549694 -3.325 204 182 121 1752393037
-1.14372 -0.531962 -3.325 204 182 121 1752393037
-1.14372 -0.51423 -3.325 204 182 121 1752393037
-1.14372 -0.496498 -3.325 204 182 121 1752393037
-1.14372 -0.478766 -3.325 204 182 121 1752393037
-1.14372 -0.461034 -3.325 204 182 121 1752393037
-1.14372 -0.443302 -3.325 204 182 121 1752393037
-1.14372 -0.42557 -3.325 204 182 121 1752393037
-1.14372 -0.407838 -3.325 204 182 121 1752393037
-1.14372 -0.390106 -3.325 204 182 121 1752393037
-1.14372 -0.372374 -3.325 204 182 121 1752393037
-1.14372 -0.354642 -3.325 204 182 121 1752393037
-1.14372 -0.33691 -3.325 204 182 121 1752393037
-1.14372 -0.319177 -3.325 204 182 121 1752393037
-1.14372 -0.301445 -3.325 204 182 121 1752393037
-1.14372 -0.283713 -3.325 204 182 121 1752393037
-1.14372 -0.265981 -3.325 204 182 121 1752393037
-1.14372 -0.248249 -3.325 204 182 121 1752393037
-1.14372 -0.230517 -3.325 204 182 121 1752393037
-1.14372 -0.212785 -3.325 204 182 121 1752393037
-1.14372 -0.195053 -3.325 204 182 121 1752393037
-1.14372 -0.177321 -3.325 204 182 121 1752393037
-1.14372 -0.159589 -3.325 204 182 121 1752393037
-1.14372 -0.141857 -3.325 204 182 121 1752393037
-1.14372 -0.124125 -3.325 204 182 121 1752393037
-1.14372 -0.106392 -3.325 204 182 121 1752393037
-1.14372 -0.08866 -3.325 204 182 121 1752393037
-1.14372 -0.070928 -3.325 204 182 121 1752393037
-1.14372 -0.053196 -3.325 204 182 121 1752393037
-1.14372 -0.035464 -3.325 204 182 121 1752393037
-1.14372 -0.017732 -3.325 204 182 121 1752393037
-1.14372 0 -3.325 204 182 121 1752393037
-1.14372 0.017732 -3.325 204 182 121 1752393037
-1.14372 0.035464 -3.325 204 182 121 1752393037
-1.14372 0.053196 -3.325 204 182 121 1752393037
-1.14372 0.070928 -3.325 204 182 121 1752393037
-1.14372 0.08866 -3.325 204 182 121 1752393037
-1.14372 0.106392 -3.325 204 182 121 1752393037
-1.14372 0.124125 -3.325 204 182 121 1752393037
-1.14372 0.141857 -3.325 204 182 121 1752393037
-1.14372 0.159589 -3.325 204 182 121 1752393037
-1.14372 0.177321 -3.325 204 182 121 1752393037
-1.14372 0.195053 -3.325 204 182 121 1752393037
-1.14372 0.212785 -3.325 204 182 121 1752393037
-1.14372 0.230517 -3.325 204 182 121 1752393037
-1.14372 0.248249 -3.325 204 182 121 1752393037
-1.14372 0.265981 -3.325 204 182 121 1752393037
-1.14372 0.283713 -3.325 204 182 121 1752393037
-1.14372 0.301445 -3.325 204 182 121 1752393037
-1.14372 0.319177 -3.325 204 182 121 1752393037
-1.14372 0.33691 -3.325 204 182 121 1752393037
-1.14372 0.354642 -3.325 204 182 121 1752393037
-1.14372 0.372374 -3.325 204 182 121 1752393037
-1.14372 0.390106 -3.325 204 182 121 1752393037
-1.14372 0.407838 -3.325 204 182 121 1752393037
-1.14372 0.42557 -3.325 204 182 121 1752393037
-1.14372 0.443302 -3.325 204 182 121 1752393037
-1.14372 0.461034 -3.325 204 182 121 1752393037
-1.14372 0.478766 -3.325 204 182 121 1752393037
-1.13946 0.49465 -3.31262 66 36 17 1752393037
-1.13946 0.512316 -3.31262 66 36 17 1752393037
-1.13946 0.529982 -3.31262 66 36 17 1752393037
-1.13946 0.547648 -3.31262 66 36 17 1752393037
-1.13946 0.565314 -3.31262 66 36 17 1752393037
-1.13946 0.58298 -3.31262 66 36 17 1752393037
-1.13946 0.600646 -3.31262 66 36 17 1752393037
-1.13946 0.618312 -3.31262 66 36 17 1752393037
-1.13946 0.635978 -3.31262 66 36 17 1752393037
-1.13946 0.653644 -3.31262 66 36 17 1752393037
-1.13946 0.67131 -3.31262 66 36 17 1752393037
-1.13946 0.688976 -3.31262 66 36 17 1752393037
-1.13946 0.706642 -3.31262 66 36 17 1752393037
-1.13946 0.724308 -3.31262 66 36 17 1752393037
-1.13946 0.741975 -3.31262 66 36 17 1752393037
-1.13946 0.759641 -3.31262 66 36 17 1752393037
-1.13946 0.777306 -3.31262 66 36 17 1752393037
-1.13946 0.794973 -3.31262 66 36 17 1752393037
-1.13946 0.812639 -3.31262 66 36 17 1752393037
-1.13946 0.830305 -3.31262 66 36 17 1752393037
-1.13946 0.847971 -3.31262 66 36 17 1752393037
-1.13946 0.865637 -3.31262 66 36 17 1752393037
-1.13946 0.883303 -3.31262 66 36 17 1752393037
-1.13946 0.900969 -3.31262 66 36 17 1752393037
-1.13946 0.918635 -3.31262 66 36 17 1752393037
-1.13946 0.936301 -3.31262 66 36 17 1752393037
-1.13946 0.953967 -3.31262 66 36 17 1752393037
-1.13946 0.971633 -3.31262 66 36 17 1752393037
-1.13946 0.989299 -3.31262 66 36 17 1752393037
-1.13946 1.00697 -3.31262 66 36 17 1752393037
-1.13946 1.02463 -3.31262 66 36 17 1752393037
-1.13946 1.0423 -3.31262 66 36 17 1752393037
-1.13946 1.05996 -3.31262 66 36 17 1752393037
-1.13946 1.07763 -3.31262 66 36 17 1752393037
-1.13946 1.0953 -3.31262 66 36 17 1752393037
-1.13946 1.11296 -3.31262 66 36 17 1752393037
-1.13946 1.13063 -3.31262 0 0 0 1752393037
-1.13946 1.14829 -3.31262 0 0 0 1752393037
-1.13946 1.16596 -3.31262 0 0 0 1752393037
-1.13946 1.18363 -3.31262 0 0 0 1752393037
-1.13946 1.20129 -3.31262 0 0 0 1752393037
-1.13946 1.21896 -3.31262 0 0 0 1752393037
-1.13946 1.23662 -3.31262 0 0 0 1752393037
-1.13946 1.25429 -3.31262 0 0 0 1752393037
-1.13946 1.27196 -3.31262 0 0 0 1752393037
-1.13946 1.28962 -3.31262 0 0 0 1752393037
-1.13946 1.30729 -3.31262 0 0 0 1752393037
-0.850001 -1 -2.50018 188 179 133 1752393037
-0.861487 -1 -2.53397 188 179 133 1752393037
-0.873288 -1 -2.56868 188 179 133 1752393037
-0.885418 -1 -2.60436 188 179 133 1752393037
-0.897888 -1 -2.64104 188 179 133 1752393037
-0.910715 -1 -2.67877 188 179 133 1752393037
-0.923914 -1 -2.71759 188 179 133 1752393037
-0.937501 -1 -2.75755 188 179 133 1752393037
-0.951493 -1 -2.79871 188 179 133 1752393037
-0.96591 -1 -2.84111 188 179 133 1752393037
-0.98077 -1 -2.88482 188 179 133 1752393037
-0.996095 -1 -2.9299 188 179 133 1752393037
-1.01191 -1 -2.9764 188 179 133 1752393037
-1.02823 -1 -3.02441 188 179 133 1752393037
-1.04508 -1 -3.07399 188 179 133 1752393037
-1.0625 -1 -3.12523 188 179 133 1752393037
-1.08051 -1 -3.1782 188 179 133 1752393037
-1.09914 -1 -3.23299 188 179 133 1752393037
-1.11842 -1 -3.28971 188 179 133 1752393037
-1.13042 -0.992997 -3.325 204 182 121 1752393037
-1.13042 -0.975264 -3.325 204 182 121 1752393037
-1.13042 -0.957532 -3.325 204 182 121 1752393037
-1.13042 -0.9398 -3.325 204 182 121 1752393037
-1.13042 -0.922068 -3.325 204 182 121 1752393037
-1.13042 -0.904336 -3.325 204 182 121 1752393037
-1.13042 -0.886604 -3.325 204 182 121 1752393037
-1.13042 -0.868872 -3.325 204 182 121 1752393037
-1.13042 -0.85114 -3.325 204 182 121 1752393037
-1.13042 -0.833408 -3.325 204 182 121 1752393037
-1.13042 -0.815676 -3.325 204 182 121 1752393037
-1.13042 -0.797943 -3.325 204 182 121 1752393037
-1.13042 -0.780212 -3.325 204 182 121 1752393037
-1.13042 -0.762479 -3.325 204 182 121 1752393037
-1.13042 -0.744747 -3.325 204 182 121 1752393037
-1.13042 -0.727015 -3.325 204 182 121 1752393037
-1.13042 -0.709283 -3.325 204 182 121 1752393037
-1.13042 -0.691551 -3.325 204 182 121 1752393037
-1.13042 -0.673819 -3.325 204 182 121 1752393037
-1.13042 -0.656087 -3.325 204 182 121 1752393037
-1.13042 -0.638355 -3.325 204 182 121 1752393037
-1.13042 -0.620623 -3.325 204 182 121 1752393037
-1.13042 -0.602891 -3.325 204 182 121 1752393037
-1.13042 -0.585159 -3.325 204 182 121 1752393037
-1.13042 -0.567426 -3.325 204 182 121 1752393037
-1.13042 -0.549694 -3.325 204 182 121 1752393037
-1.13042 -0.531962 -3.325 204 182 121 1752393037
-1.13042 -0.51423 -3.325 204 182 121 1752393037
-1.13042 -0.496498 -3.325 204 182 121 1752393037
-1.13042 -0.478766 -3.325 204 182 121 1752393037
-1.13042 -0.461034 -3.325 204 182 121 1752393037
-1.13042 -0.443302 -3.325 204 182 121 1752393037
-1.13042 -0.42557 -3.325 204 182 121 1752393037
-1.13042 -0.407838 -3.325 204 182 121 1752393037
-1.13042 -0.390106 -3.325 204 182 121 1752393037
-1.13042 -0.372374 -3.325 204 182 121 1752393037
-1.13042 -0.354642 -3.325 204 182 121 1752393037
-1.13042 -0.33691 -3.325 204 182 121 1752393037
-1.13042 -0.319177 -3.325 204 182 121 1752393037
-1.13042 -0.301445 -3.325 204 182 121 1752393037
-1.13042 -0.283713 -3.325 204 182 121 1752393037
-1.13042 -0.265981 -3.325 204 182 121 1752393037
-1.13042 -0.248249 -3.325 204 182 121 1752393037
-1.13042 -0.230517 -3.325 204 182 121 1752393037
-1.13042 -0.212785 -3.325 204 182 121 1752393037
-1.13042 -0.195053 -3.325 204 182 121 1752393037
-1.13042 -0.177321 -3.325 204 182 121 1752393037
-1.13042 -0.159589 -3.325 204 182 121 1752393037
-1.13042 -0.141857 -3.325 204 182 121 1752393037
-1.13042 -0.124125 -3.325 204 182 121 1752393037
-1.13042 -0.106392 -3.325 204 182 121 1752393037
-1.13042 -0.08866 -3.325 204 182 121 1752393037
-1.13042 -0.070928 -3.325 204 182 121 1752393037
-1.13042 -0.053196 -3.325 204 182 121 1752393037
-1.13042 -0.035464 -3.325 204 182 121 1752393037
-1.13042 -0.017732 -3.325 204 182 121 1752393037
-1.13042 0 -3.325 204 182 121 1752393037
-1.13042 0.017732 -3.325 204 182 121 1752393037
-1.13042 0.035464 -3.325 204 182 121 1752393037
-1.13042 0.053196 -3.325 204 182 121 1752393037
-1.13042 0.070928 -3.325 204 182 121 1752393037
-1.13042 0.08866 -3.325 204 182 121 1752393037
-1.13042 0.106392 -3.325 204 182 121 1752393037
-1.13042 0.124125 -3.325 204 182 121 1752393037
-1.13042 0.141857 -3.325 204 182 121 1752393037
-1.13042 0.159589 -3.325 204 182 121 1752393037
-1.13042 0.177321 -3.325 204 182 121 1752393037
-1.13042 0.195053 -3.325 204 182 121 1752393037
-1.13042 0.212785 -3.325 204 182 121 1752393037
-1.13042 0.230517 -3.325 204 182 121 1752393037
-1.13042 0.248249 -3.325 204 182 121 1752393037
-1.13042 0.265981 -3.325 204 182 121 1752393037
-1.13042 0.283713 -3.325 204 182 121 1752393037
-1.13042 0.301445 -3.325 204 182 121 1752393037
-1.13042 0.319177 -3.325 204 182 121 1752393037
-1.13042 0.33691 -3.325 204 182 121 1752393037
-1.13042 0.354642 -3.325 204 182 121 1752393037
-1.13042 0.372374 -3.325 204 182 121 1752393037
-1.13042 0.390106 -3.325 204 182 121 1752393037
-1.13042 0.407838 -3.325 204 182 121 1752393037
-1.13042 0.42557 -3.325 204 182 121 1752393037
-1.13042 0.443302 -3.325 204 182 121 1752393037
-1.13042 0.461034 -3.325 204 182 121 1752393037
-1.13042 0.478766 -3.325 204 182 121 1752393037
-1.12621 0.49465 -3.31262 66 36 17 1752393037
-1.12621 0.512316 -3.31262 66 36 17 1752393037
-1.12621 0.529982 -3.31262 66 36 17 1752393037
-1.12621 0.547648 -3.31262 66 36 17 1752393037
-1.12621 0.565314 -3.31262 66 36 17 1752393037
-1.12621 0.58298 -3.31262 66 36 17 1752393037
-1.12621 0.600646 -3.31262 66 36 17 1752393037
-1.12621 0.618312 -3.31262 66 36 17 1752393037
-1.12621 0.635978 -3.31262 66 36 17 1752393037
-1.12621 0.653644 -3.31262 66 36 17 1752393037
-1.12621 0.67131 -3.31262 66 36 17 1752393037
-1.12621 0.688976 -3.31262 66 36 17 1752393037
-1.12621 0.706642 -3.31262 66 36 17 1752393037
-1.12621 0.724308 -3.31262 66 36 17 1752393037
-1.12621 0.741974 -3.31262 66 36 17 1752393037
-1.12621 0.759641 -3.31262 66 36 17 1752393037
-1.12621 0.777307 -3.31262 66 36 17 1752393037
-1.12621 0.794973 -3.31262 66 36 17 1752393037
-1.12621 0.812639 -3.31262 66 36 17 1752393037
-1.12621 0.830305 -3.31262 66 36 17 1752393037
-1.12621 0.847971 -3.31262 66 36 17 1752393037
-1.12621 0.865637 -3.31262 66 36 17 1752393037
-1.12621 0.883303 -3.31262 66 36 17 1752393037
-1.12621 0.900969 -3.31262 66 36 17 1752393037
-1.12621 0.918635 -3.31262 66 36 17 1752393037
-1.12621 0.936301 -3.31262 66 36 17 1752393037
-1.12621 0.953967 -3.31262 66 36 17 1752393037
-1.12621 0.971633 -3.31262 66 36 17 1752393037
-1.12621 0.989299 -3.31262 66 36 17 1752393037
-1.12621 1.00697 -3.31262 66 36 17 1752393037
-1.12621 1.02463 -3.31262 66 36 17 1752393037
-1.12621 1.0423 -3.31262 66 36 17 1752393037
-1.12621 1.05996 -3.31262 66 36 17 1752393037
-1.12621 1.07763 -3.31262 66 36 17 1752393037
-1.12621 1.0953 -3.31262 66 36 17 1752393037
-1.12621 1.11296 -3.31262 66 36 17 1752393037
-1.12621 1.13063 -3.31262 0 0 0 1752393037
-1.12621 1.14829 -3.31262 0 0 0 1752393037
-1.12621 1.16596 -3.31262 0 0 0 1752393037
-1.12621 1.18363 -3.31262 0 0 0 1752393037
-1.12621 1.20129 -3.31262 0 0 0 1752393037
-1.12621 1.21896 -3.31262 0 0 0 1752393037
-1.12621 1.23662 -3.31262 0 0 0 1752393037
-1.12621 1.25429 -3.31262 0 0 0 1752393037
-1.12621 1.27196 -3.31262 0 0 0 1752393037
-1.12621 1.28962 -3.31262 0 0 0 1752393037
-1.12621 1.30729 -3.31262 0 0 0 1752393037
-0.840001 -1 -2.50018 188 179 133 1752393037
-0.851352 -1 -2.53397 188 179 133 1752393037
-0.863014 -1 -2.56868 188 179 133 1752393037
-0.875001 -1 -2.60436 188 179 133 1752393037
-0.887325 -1 -2.64104 188 179 133 1752393037
-0.900001 -1 -2.67877 188 179 133 1752393037
-0.913044 -1 -2.71759 188 179 133 1752393037
-0.926471 -1 -2.75755 188 179 133 1752393037
-0.940299 -1 -2.79871 188 179 133 1752393037
-0.954546 -1 -2.84111 188 179 133 1752393037
-0.969232 -1 -2.88482 188 179 133 1752393037
-0.984376 -1 -2.9299 188 179 133 1752393037
-1 -1 -2.97641 188 179 133 1752393037
-1.01613 -1 -3.02441 188 179 133 1752393037
-1.03279 -1 -3.07399 188 179 133 1752393037
-1.05 -1 -3.12523 188 179 133 1752393037
