ply
format ascii 1.0
comment PCL generated
obj_info is_cyberware_data 0
obj_info is_mesh 0
obj_info is_warped 0
obj_info is_interlaced 0
obj_info num_cols 30000
obj_info num_rows 1
obj_info echo_rgb_offset_x 0
obj_info echo_rgb_offset_y 0
obj_info echo_rgb_offset_z 0
obj_info echo_rgb_frontfocus 0.0
obj_info echo_rgb_backfocus 0.0
obj_info echo_rgb_pixelsize 0.0
obj_info echo_rgb_centerpixel 0
obj_info echo_frames 1
obj_info echo_lgincr 0.0
element vertex 956
property float x
property float y
property float z
property uchar red
property uchar green
property uchar blue
property uint label
end_header
0.714984 -0.381325 -2.38345 177 105 42 1752393037
0.714984 -0.368614 -2.38345 177 105 42 1752393037
0.714984 -0.355903 -2.38345 177 105 42 1752393037
0.714984 -0.343192 -2.38345 177 105 42 1752393037
0.714984 -0.330481 -2.38345 177 105 42 1752393037
0.714984 -0.317771 -2.38345 177 105 42 1752393037
0.714984 -0.30506 -2.38345 177 105 42 1752393037
0.714984 -0.292349 -2.38345 177 105 42 1752393037
0.714984 -0.279638 -2.38345 177 105 42 1752393037
0.714984 -0.266927 -2.38345 177 105 42 1752393037
0.714984 -0.254217 -2.38345 177 105 42 1752393037
0.714984 -0.241506 -2.38345 177 105 42 1752393037
0.714984 -0.228795 -2.38345 177 105 42 1752393037
0.714984 -0.216084 -2.38345 177 105 42 1752393037
0.714984 -0.203373 -2.38345 177 105 42 1752393037
0.714984 -0.190662 -2.38345 177 105 42 1752393037
0.714984 -0.177952 -2.38345 177 105 42 1752393037
0.714984 -0.165241 -2.38345 177 105 42 1752393037
0.714984 -0.15253 -2.38345 177 105 42 1752393037
0.714984 -0.139819 -2.38345 177 105 42 1752393037
0.714984 -0.127108 -2.38345 177 105 42 1752393037
0.714984 -0.114397 -2.38345 177 105 42 1752393037
0.72083 -0.102518 -2.40294 177 105 42 1752393037
0.72083 -0.089703 -2.40294 177 105 42 1752393037
0.72083 -0.076889 -2.40294 177 105 42 1752393037
0.72083 -0.064074 -2.40294 177 105 42 1752393037
0.716933 -0.050982 -2.38995 177 105 42 1752393037
0.716933 -0.038236 -2.38995 177 105 42 1752393037
0.794983 -0.028266 -2.65013 177 105 42 1752393037
0.889851 -0.01582 -2.96638 204 182 121 1752393037
0.889851 0 -2.96638 204 182 121 1752393037
0.889851 0.01582 -2.96638 204 182 121 1752393037
0.889851 0.031639 -2.96638 204 182 121 1752393037
0.889851 0.047459 -2.96638 204 182 121 1752393037
0.889851 0.063278 -2.96638 204 182 121 1752393037
0.889851 0.079098 -2.96638 204 182 121 1752393037
0.889851 0.094917 -2.96638 204 182 121 1752393037
0.889851 0.110737 -2.96638 204 182 121 1752393037
0.889851 0.126557 -2.96638 204 182 121 1752393037
0.889851 0.142376 -2.96638 204 182 121 1752393037
0.889851 0.158196 -2.96638 204 182 121 1752393037
0.889851 0.174015 -2.96638 204 182 121 1752393037
0.889851 0.189835 -2.96638 204 182 121 1752393037
0.889851 0.205654 -2.96638 204 182 121 1752393037
0.889851 0.221474 -2.96638 204 182 121 1752393037
0.889851 0.237294 -2.96638 204 182 121 1752393037
0.889851 0.253113 -2.96638 204 182 121 1752393037
0.889851 0.268933 -2.96638 204 182 121 1752393037
0.889851 0.284752 -2.96638 204 182 121 1752393037
0.889851 0.300572 -2.96638 204 182 121 1752393037
0.889851 0.316391 -2.96638 204 182 121 1752393037
0.889851 0.332211 -2.96638 204 182 121 1752393037
0.889851 0.348031 -2.96638 204 182 121 1752393037
0.889851 0.36385 -2.96638 204 182 121 1752393037
0.889851 0.37967 -2.96638 204 182 121 1752393037
0.889851 0.395489 -2.96638 204 182 121 1752393037
0.889851 0.411309 -2.96638 204 182 121 1752393037
0.889851 0.427128 -2.96638 204 182 121 1752393037
0.889851 0.442948 -2.96638 204 182 121 1752393037
0.889851 0.458768 -2.96638 204 182 121 1752393037
0.889851 0.474587 -2.96638 204 182 121 1752393037
0.889851 0.490407 -2.96638 204 182 121 1752393037
0.889851 0.506226 -2.96638 204 182 121 1752393037
0.889851 0.522046 -2.96638 204 182 121 1752393037
0.889851 0.537865 -2.96638 204 182 121 1752393037
0.889851 0.553685 -2.96638 204 182 121 1752393037
0.889851 0.569504 -2.96638 204 182 121 1752393037
0.889851 0.585324 -2.96638 204 182 121 1752393037
0.889851 0.601144 -2.96638 204 182 121 1752393037
0.889851 0.616963 -2.96638 204 182 121 1752393037
0.889851 0.632783 -2.96638 204 182 121 1752393037
0.889851 0.648602 -2.96638 204 182 121 1752393037
0.889851 0.664422 -2.96638 204 182 121 1752393037
0.889851 0.680242 -2.96638 204 182 121 1752393037
0.889851 0.696061 -2.96638 204 182 121 1752393037
0.889851 0.711881 -2.96638 204 182 121 1752393037
0.889851 0.7277 -2.96638 204 182 121 1752393037
0.889851 0.74352 -2.96638 204 182 121 1752393037
0.889851 0.759339 -2.96638 204 182 121 1752393037
0.889851 0.775159 -2.96638 204 182 121 1752393037
0.889851 0.790978 -2.96638 204 182 121 1752393037
0.889851 0.806798 -2.96638 204 182 121 1752393037
0.889851 0.822618 -2.96638 204 182 121 1752393037
0.889851 0.838437 -2.96638 204 182 121 1752393037
0.889851 0.854257 -2.96638 204 182 121 1752393037
0.889851 0.870076 -2.96638 204 182 121 1752393037
0.889851 0.885896 -2.96638 204 182 121 1752393037
0.889851 0.901716 -2.96638 204 182 121 1752393037
0.889851 0.917535 -2.96638 204 182 121 1752393037
0.889851 0.933355 -2.96638 204 182 121 1752393037
0.889851 0.949174 -2.96638 204 182 121 1752393037
0.889851 0.964994 -2.96638 204 182 121 1752393037
0.889851 0.980813 -2.96638 204 182 121 1752393037
0.889851 0.996633 -2.96638 204 182 121 1752393037
0.889851 1.01245 -2.96638 204 182 121 1752393037
0.889851 1.02827 -2.96638 204 182 121 1752393037
0.889851 1.04409 -2.96638 204 182 121 1752393037
0.889851 1.05991 -2.96638 204 182 121 1752393037
0.889851 1.07573 -2.96638 204 182 121 1752393037
0.889851 1.09155 -2.96638 204 182 121 1752393037
0.889851 1.10737 -2.96638 204 182 121 1752393037
0.889851 1.12319 -2.96638 204 182 121 1752393037
0.889851 1.13901 -2.96638 204 182 121 1752393037
0.889851 1.15483 -2.96638 204 182 121 1752393037
0.889851 1.17065 -2.96638 204 182 121 1752393037
0.202629 -0.266617 -0.666591 149 73 28 1752393037
0.202629 -0.263063 -0.666591 149 73 28 1752393037
0.198481 -0.254195 -0.652944 149 73 28 1752393037
0.198481 -0.250713 -0.652944 149 73 28 1752393037
0.198481 -0.24723 -0.652944 149 73 28 1752393037
0.200315 -0.246001 -0.658977 149 73 28 1752393037
0.203218 -0.246001 -0.668528 149 73 28 1752393037
0.206206 -0.246001 -0.678359 149 73 28 1752393037
0.209284 -0.246001 -0.688484 149 73 28 1752393037
0.212455 -0.246001 -0.698915 149 73 28 1752393037
0.215724 -0.246001 -0.709668 149 73 28 1752393037
0.219094 -0.246001 -0.720757 149 73 28 1752393037
0.222572 -0.246001 -0.732197 149 73 28 1752393037
0.226162 -0.246001 -0.744007 149 73 28 1752393037
0.229869 -0.246001 -0.756204 149 73 28 1752393037
0.233701 -0.246001 -0.768807 149 73 28 1752393037
0.237662 -0.246001 -0.781838 149 73 28 1752393037
0.241759 -0.246001 -0.795318 149 73 28 1752393037
0.246001 -0.246001 -0.809271 149 73 28 1752393037
0.250394 -0.246001 -0.823722 149 73 28 1752393037
0.254946 -0.246001 -0.838699 149 73 28 1752393037
0.259667 -0.246001 -0.85423 149 73 28 1752393037
0.264567 -0.246001 -0.870348 149 73 28 1752393037
0.269655 -0.246001 -0.887085 149 73 28 1752393037
0.274942 -0.246001 -0.904479 149 73 28 1752393037
0.280441 -0.246001 -0.922569 149 73 28 1752393037
0.286164 -0.246001 -0.941397 149 73 28 1752393037
0.292126 -0.246001 -0.961009 149 73 28 1752393037
0.298341 -0.246001 -0.981456 149 73 28 1752393037
0.304827 -0.246001 -1.00279 149 73 28 1752393037
0.311601 -0.246001 -1.02508 149 73 28 1752393037
0.318683 -0.246001 -1.04837 149 73 28 1752393037
0.326094 -0.246001 -1.07275 149 73 28 1752393037
0.333858 -0.246001 -1.0983 149 73 28 1752393037
0.342001 -0.246001 -1.12508 149 73 28 1752393037
0.350551 -0.246001 -1.15321 149 73 28 1752393037
0.35954 -0.246001 -1.18278 149 73 28 1752393037
0.369002 -0.246001 -1.21391 149 73 28 1752393037
0.378975 -0.246001 -1.24672 149 73 28 1752393037
0.389502 -0.246001 -1.28135 149 73 28 1752393037
0.40063 -0.246001 -1.31796 149 73 28 1752393037
0.412414 -0.246001 -1.35672 149 73 28 1752393037
0.424911 -0.246001 -1.39783 149 73 28 1752393037
0.43819 -0.246001 -1.44152 149 73 28 1752393037
0.723094 -0.393261 -2.37877 177 105 42 1752393037
0.723094 -0.380576 -2.37877 177 105 42 1752393037
0.723094 -0.36789 -2.37877 177 105 42 1752393037
0.723094 -0.355204 -2.37877 177 105 42 1752393037
0.723094 -0.342518 -2.37877 177 105 42 1752393037
0.723094 -0.329832 -2.37877 177 105 42 1752393037
0.723094 -0.317146 -2.37877 177 105 42 1752393037
0.723094 -0.304461 -2.37877 177 105 42 1752393037
0.723094 -0.291775 -2.37877 177 105 42 1752393037
0.723094 -0.279089 -2.37877 177 105 42 1752393037
0.723094 -0.266403 -2.37877 177 105 42 1752393037
0.723094 -0.253717 -2.37877 177 105 42 1752393037
0.723094 -0.241031 -2.37877 177 105 42 1752393037
0.723094 -0.228345 -2.37877 177 105 42 1752393037
0.723094 -0.21566 -2.37877 177 105 42 1752393037
0.723094 -0.202974 -2.37877 177 105 42 1752393037
0.723094 -0.190288 -2.37877 177 105 42 1752393037
0.723094 -0.177602 -2.37877 177 105 42 1752393037
0.723094 -0.164916 -2.37877 177 105 42 1752393037
0.723094 -0.15223 -2.37877 177 105 42 1752393037
0.723094 -0.139544 -2.37877 177 105 42 1752393037
0.723094 -0.126859 -2.37877 177 105 42 1752393037
0.723094 -0.114173 -2.37877 177 105 42 1752393037
0.729006 -0.102317 -2.39822 177 105 42 1752393037
0.729006 -0.089527 -2.39822 177 105 42 1752393037
0.729006 -0.076737 -2.39822 177 105 42 1752393037
0.729006 -0.063948 -2.39822 177 105 42 1752393037
0.725065 -0.050882 -2.38525 177 105 42 1752393037
0.725065 -0.038161 -2.38525 177 105 42 1752393037
0.805583 -0.028266 -2.65013 177 105 42 1752393037
0.904241 -0.015864 -2.97469 204 182 121 1752393037
0.904241 0 -2.97469 204 182 121 1752393037
0.904241 0.015864 -2.97469 204 182 121 1752393037
0.904241 0.031728 -2.97469 204 182 121 1752393037
0.904241 0.047592 -2.97469 204 182 121 1752393037
0.904241 0.063455 -2.97469 204 182 121 1752393037
0.904241 0.079319 -2.97469 204 182 121 1752393037
0.904241 0.095183 -2.97469 204 182 121 1752393037
0.904241 0.111047 -2.97469 204 182 121 1752393037
0.904241 0.126911 -2.97469 204 182 121 1752393037
0.904241 0.142775 -2.97469 204 182 121 1752393037
0.904241 0.158639 -2.97469 204 182 121 1752393037
0.904241 0.174503 -2.97469 204 182 121 1752393037
0.904241 0.190366 -2.97469 204 182 121 1752393037
0.904241 0.20623 -2.97469 204 182 121 1752393037
0.904241 0.222094 -2.97469 204 182 121 1752393037
0.904241 0.237958 -2.97469 204 182 121 1752393037
0.904241 0.253822 -2.97469 204 182 121 1752393037
0.904241 0.269686 -2.97469 204 182 121 1752393037
0.904241 0.28555 -2.97469 204 182 121 1752393037
0.904241 0.301414 -2.97469 204 182 121 1752393037
0.904241 0.317277 -2.97469 204 182 121 1752393037
0.904241 0.333141 -2.97469 204 182 121 1752393037
0.904241 0.349005 -2.97469 204 182 121 1752393037
0.904241 0.364869 -2.97469 204 182 121 1752393037
0.904241 0.380733 -2.97469 204 182 121 1752393037
0.904241 0.396597 -2.97469 204 182 121 1752393037
0.904241 0.412461 -2.97469 204 182 121 1752393037
0.904241 0.428325 -2.97469 204 182 121 1752393037
0.904241 0.444189 -2.97469 204 182 121 1752393037
0.904241 0.460053 -2.97469 204 182 121 1752393037
0.904241 0.475916 -2.97469 204 182 121 1752393037
0.904241 0.49178 -2.97469 204 182 121 1752393037
0.904241 0.507644 -2.97469 204 182 121 1752393037
0.904241 0.523508 -2.97469 204 182 121 1752393037
0.904241 0.539372 -2.97469 204 182 121 1752393037
0.904241 0.555236 -2.97469 204 182 121 1752393037
0.904241 0.5711 -2.97469 204 182 121 1752393037
0.904241 0.586963 -2.97469 204 182 121 1752393037
0.904241 0.602827 -2.97469 204 182 121 1752393037
0.904241 0.618691 -2.97469 204 182 121 1752393037
0.904241 0.634555 -2.97469 204 182 121 1752393037
0.904241 0.650419 -2.97469 204 182 121 1752393037
0.904241 0.666283 -2.97469 204 182 121 1752393037
0.904241 0.682147 -2.97469 204 182 121 1752393037
0.904241 0.698011 -2.97469 204 182 121 1752393037
0.904241 0.713874 -2.97469 204 182 121 1752393037
0.904241 0.729738 -2.97469 204 182 121 1752393037
0.904241 0.745602 -2.97469 204 182 121 1752393037
0.904241 0.761466 -2.97469 204 182 121 1752393037
0.904241 0.77733 -2.97469 204 182 121 1752393037
0.904241 0.793194 -2.97469 204 182 121 1752393037
0.904241 0.809058 -2.97469 204 182 121 1752393037
0.904241 0.824922 -2.97469 204 182 121 1752393037
0.904241 0.840786 -2.97469 204 182 121 1752393037
0.904241 0.85665 -2.97469 204 182 121 1752393037
0.904241 0.872513 -2.97469 204 182 121 1752393037
0.904241 0.888377 -2.97469 204 182 121 1752393037
0.904241 0.904241 -2.97469 204 182 121 1752393037
0.904241 0.920105 -2.97469 204 182 121 1752393037
0.904241 0.935969 -2.97469 204 182 121 1752393037
0.904241 0.951833 -2.97469 204 182 121 1752393037
0.904241 0.967697 -2.97469 204 182 121 1752393037
0.904241 0.983561 -2.97469 204 182 121 1752393037
0.904241 0.999424 -2.97469 204 182 121 1752393037
0.904241 1.01529 -2.97469 204 182 121 1752393037
0.904241 1.03115 -2.97469 204 182 121 1752393037
0.904241 1.04702 -2.97469 204 182 121 1752393037
0.904241 1.06288 -2.97469 204 182 121 1752393037
0.904241 1.07874 -2.97469 204 182 121 1752393037
0.904241 1.09461 -2.97469 204 182 121 1752393037
0.904241 1.11047 -2.97469 204 182 121 1752393037
0.904241 1.12634 -2.97469 204 182 121 1752393037
0.904241 1.1422 -2.97469 204 182 121 1752393037
0.904241 1.15806 -2.97469 204 182 121 1752393037
0.904241 1.17393 -2.97469 204 182 121 1752393037
0.204532 -0.265626 -0.664112 149 73 28 1752393037
0.200511 -0.256932 -0.651057 149 73 28 1752393037
0.200511 -0.25346 -0.651057 149 73 28 1752393037
0.200511 -0.249988 -0.651057 149 73 28 1752393037
0.200511 -0.246516 -0.651057 149 73 28 1752393037
0.202951 -0.246001 -0.658977 149 73 28 1752393037
0.205892 -0.246001 -0.668528 149 73 28 1752393037
0.20892 -0.246001 -0.678359 149 73 28 1752393037
0.212038 -0.246001 -0.688484 149 73 28 1752393037
0.215251 -0.246001 -0.698915 149 73 28 1752393037
0.218562 -0.246001 -0.709668 149 73 28 1752393037
0.221977 -0.246001 -0.720757 149 73 28 1752393037
0.225501 -0.246001 -0.732197 149 73 28 1752393037
0.229138 -0.246001 -0.744007 149 73 28 1752393037
0.232894 -0.246001 -0.756204 149 73 28 1752393037
0.236776 -0.246001 -0.768807 149 73 28 1752393037
0.240789 -0.246001 -0.781838 149 73 28 1752393037
0.24494 -0.246001 -0.795318 149 73 28 1752393037
0.249238 -0.246001 -0.809271 149 73 28 1752393037
0.253688 -0.246001 -0.823722 149 73 28 1752393037
0.258301 -0.246001 -0.838699 149 73 28 1752393037
0.263084 -0.246001 -0.85423 149 73 28 1752393037
0.268048 -0.246001 -0.870348 149 73 28 1752393037
0.273203 -0.246001 -0.887085 149 73 28 1752393037
0.27856 -0.246001 -0.904479 149 73 28 1752393037
0.284131 -0.246001 -0.922569 149 73 28 1752393037
0.28993 -0.246001 -0.941397 149 73 28 1752393037
0.29597 -0.246001 -0.961009 149 73 28 1752393037
0.302267 -0.246001 -0.981456 149 73 28 1752393037
0.308838 -0.246001 -1.00279 149 73 28 1752393037
0.315701 -0.246001 -1.02508 149 73 28 1752393037
0.322876 -0.246001 -1.04837 149 73 28 1752393037
0.330385 -0.246001 -1.07275 149 73 28 1752393037
0.338251 -0.246001 -1.0983 149 73 28 1752393037
0.346501 -0.246001 -1.12508 149 73 28 1752393037
0.355164 -0.246001 -1.15321 149 73 28 1752393037
0.364271 -0.246001 -1.18278 149 73 28 1752393037
0.373857 -0.246001 -1.21391 149 73 28 1752393037
0.383961 -0.246001 -1.24672 149 73 28 1752393037
0.394627 -0.246001 -1.28135 149 73 28 1752393037
0.405902 -0.246001 -1.31796 149 73 28 1752393037
0.41784 -0.246001 -1.35672 149 73 28 1752393037
0.430502 -0.246001 -1.39783 149 73 28 1752393037
0.443955 -0.246001 -1.44152 149 73 28 1752393037
0.731172 -0.39249 -2.3741 177 105 42 1752393037
0.731172 -0.379829 -2.3741 177 105 42 1752393037
0.731172 -0.367169 -2.3741 177 105 42 1752393037
0.731172 -0.354508 -2.3741 177 105 42 1752393037
0.731172 -0.341847 -2.3741 177 105 42 1752393037
0.731172 -0.329186 -2.3741 177 105 42 1752393037
0.731172 -0.316525 -2.3741 177 105 42 1752393037
0.731172 -0.303864 -2.3741 177 105 42 1752393037
0.731172 -0.291203 -2.3741 177 105 42 1752393037
0.731172 -0.278542 -2.3741 177 105 42 1752393037
0.731172 -0.265881 -2.3741 177 105 42 1752393037
0.731172 -0.25322 -2.3741 177 105 42 1752393037
0.731172 -0.240559 -2.3741 177 105 42 1752393037
0.731172 -0.227898 -2.3741 177 105 42 1752393037
0.731172 -0.215237 -2.3741 177 105 42 1752393037
0.731172 -0.202576 -2.3741 177 105 42 1752393037
0.731172 -0.189915 -2.3741 177 105 42 1752393037
0.731172 -0.177254 -2.3741 177 105 42 1752393037
0.731172 -0.164593 -2.3741 177 105 42 1752393037
0.731172 -0.151932 -2.3741 177 105 42 1752393037
0.731172 -0.139271 -2.3741 177 105 42 1752393037
0.731172 -0.12661 -2.3741 177 105 42 1752393037
0.731172 -0.113949 -2.3741 177 105 42 1752393037
0.73715 -0.102116 -2.39352 177 105 42 1752393037
0.73715 -0.089352 -2.39352 177 105 42 1752393037
0.73715 -0.076587 -2.39352 177 105 42 1752393037
0.73715 -0.063823 -2.39352 177 105 42 1752393037
0.733165 -0.050782 -2.38057 177 105 42 1752393037
0.733165 -0.038086 -2.38057 177 105 42 1752393037
0.816183 -0.028266 -2.65013 177 105 42 1752393037
0.918712 -0.015908 -2.98304 204 182 121 1752393037
0.918712 0 -2.98304 204 182 121 1752393037
0.918712 0.015908 -2.98304 204 182 121 1752393037
0.918712 0.031817 -2.98304 204 182 121 1752393037
0.918712 0.047725 -2.98304 204 182 121 1752393037
0.918712 0.063634 -2.98304 204 182 121 1752393037
0.918712 0.079542 -2.98304 204 182 121 1752393037
0.918712 0.095451 -2.98304 204 182 121 1752393037
0.918712 0.111359 -2.98304 204 182 121 1752393037
0.918712 0.127267 -2.98304 204 182 121 1752393037
0.918712 0.143176 -2.98304 204 182 121 1752393037
0.918712 0.159084 -2.98304 204 182 121 1752393037
0.918712 0.174993 -2.98304 204 182 121 1752393037
0.918712 0.190901 -2.98304 204 182 121 1752393037
0.918712 0.20681 -2.98304 204 182 121 1752393037
0.918712 0.222718 -2.98304 204 182 121 1752393037
0.918712 0.238626 -2.98304 204 182 121 1752393037
0.918712 0.254535 -2.98304 204 182 121 1752393037
0.918712 0.270443 -2.98304 204 182 121 1752393037
0.918712 0.286352 -2.98304 204 182 121 1752393037
0.918712 0.30226 -2.98304 204 182 121 1752393037
0.918712 0.318169 -2.98304 204 182 121 1752393037
0.918712 0.334077 -2.98304 204 182 121 1752393037
0.918712 0.349985 -2.98304 204 182 121 1752393037
0.918712 0.365894 -2.98304 204 182 121 1752393037
0.918712 0.381802 -2.98304 204 182 121 1752393037
0.918712 0.397711 -2.98304 204 182 121 1752393037
0.918712 0.413619 -2.98304 204 182 121 1752393037
0.918712 0.429528 -2.98304 204 182 121 1752393037
0.918712 0.445436 -2.98304 204 182 121 1752393037
0.918712 0.461345 -2.98304 204 182 121 1752393037
0.918712 0.477253 -2.98304 204 182 121 1752393037
0.918712 0.493161 -2.98304 204 182 121 1752393037
0.918712 0.50907 -2.98304 204 182 121 1752393037
0.918712 0.524978 -2.98304 204 182 121 1752393037
0.918712 0.540887 -2.98304 204 182 121 1752393037
0.918712 0.556795 -2.98304 204 182 121 1752393037
0.918712 0.572704 -2.98304 204 182 121 1752393037
0.918712 0.588612 -2.98304 204 182 121 1752393037
0.918712 0.60452 -2.98304 204 182 121 1752393037
0.918712 0.620429 -2.98304 204 182 121 1752393037
0.918712 0.636337 -2.98304 204 182 121 1752393037
0.918712 0.652246 -2.98304 204 182 121 1752393037
0.918712 0.668154 -2.98304 204 182 121 1752393037
0.918712 0.684063 -2.98304 204 182 121 1752393037
0.918712 0.699971 -2.98304 204 182 121 1752393037
0.918712 0.715879 -2.98304 204 182 121 1752393037
0.918712 0.731788 -2.98304 204 182 121 1752393037
0.918712 0.747696 -2.98304 204 182 121 1752393037
0.918712 0.763605 -2.98304 204 182 121 1752393037
0.918712 0.779513 -2.98304 204 182 121 1752393037
0.918712 0.795422 -2.98305 204 182 121 1752393037
0.918712 0.81133 -2.98304 204 182 121 1752393037
0.918712 0.827239 -2.98304 204 182 121 1752393037
0.918712 0.843147 -2.98304 204 182 121 1752393037
0.918712 0.859055 -2.98304 204 182 121 1752393037
0.918712 0.874964 -2.98304 204 182 121 1752393037
0.918712 0.890872 -2.98304 204 182 121 1752393037
0.918712 0.906781 -2.98304 204 182 121 1752393037
0.918712 0.922689 -2.98304 204 182 121 1752393037
0.918712 0.938598 -2.98304 204 182 121 1752393037
0.918712 0.954506 -2.98304 204 182 121 1752393037
0.918712 0.970414 -2.98304 204 182 121 1752393037
0.918712 0.986323 -2.98304 204 182 121 1752393037
0.918712 1.00223 -2.98304 204 182 121 1752393037
0.918712 1.01814 -2.98304 204 182 121 1752393037
0.918712 1.03405 -2.98304 204 182 121 1752393037
0.918712 1.04996 -2.98304 204 182 121 1752393037
0.918712 1.06587 -2.98304 204 182 121 1752393037
0.918712 1.08177 -2.98304 204 182 121 1752393037
0.918712 1.09768 -2.98304 204 182 121 1752393037
0.918712 1.11359 -2.98304 204 182 121 1752393037
0.918712 1.1295 -2.98304 204 182 121 1752393037
0.918712 1.14541 -2.98304 204 182 121 1752393037
0.918712 1.16132 -2.98304 204 182 121 1752393037
0.918712 1.17722 -2.98304 204 182 121 1752393037
0.20642 -0.264641 -0.661651 149 73 28 1752393037
0.202612 -0.256296 -0.649444 149 73 28 1752393037
0.202612 -0.252832 -0.649444 149 73 28 1752393037
0.202612 -0.249369 -0.649444 149 73 28 1752393037
0.202691 -0.246001 -0.649696 149 73 28 1752393037
0.205586 -0.246001 -0.658977 149 73 28 1752393037
0.208566 -0.246001 -0.668528 149 73 28 1752393037
0.211633 -0.246001 -0.678359 149 73 28 1752393037
0.214792 -0.246001 -0.688484 149 73 28 1752393037
0.218046 -0.246001 -0.698915 149 73 28 1752393037
0.221401 -0.246001 -0.709668 149 73 28 1752393037
0.22486 -0.246001 -0.720757 149 73 28 1752393037
0.228429 -0.246001 -0.732197 149 73 28 1752393037
0.232114 -0.246001 -0.744007 149 73 28 1752393037
0.235919 -0.246001 -0.756204 149 73 28 1752393037
0.239851 -0.246001 -0.768807 149 73 28 1752393037
0.243916 -0.246001 -0.781838 149 73 28 1752393037
0.248121 -0.246001 -0.795318 149 73 28 1752393037
0.252474 -0.246001 -0.809271 149 73 28 1752393037
0.256983 -0.246001 -0.823722 149 73 28 1752393037
0.261655 -0.246001 -0.838699 149 73 28 1752393037
0.266501 -0.246001 -0.85423 149 73 28 1752393037
0.271529 -0.246001 -0.870348 149 73 28 1752393037
0.276751 -0.246001 -0.887085 149 73 28 1752393037
0.282177 -0.246001 -0.904479 149 73 28 1752393037
0.287821 -0.246001 -0.922569 149 73 28 1752393037
0.293695 -0.246001 -0.941397 149 73 28 1752393037
0.299814 -0.246001 -0.961009 149 73 28 1752393037
0.306193 -0.246001 -0.981456 149 73 28 1752393037
0.312849 -0.246001 -1.00279 149 73 28 1752393037
0.319801 -0.246001 -1.02508 149 73 28 1752393037
0.327069 -0.246001 -1.04837 149 73 28 1752393037
0.334676 -0.246001 -1.07275 149 73 28 1752393037
0.342644 -0.246001 -1.0983 149 73 28 1752393037
0.351001 -0.246001 -1.12508 149 73 28 1752393037
0.359776 -0.246001 -1.15321 149 73 28 1752393037
0.369001 -0.246001 -1.18278 149 73 28 1752393037
0.378712 -0.246001 -1.21391 149 73 28 1752393037
0.388948 -0.246001 -1.24672 149 73 28 1752393037
0.399752 -0.246001 -1.28135 149 73 28 1752393037
0.411173 -0.246001 -1.31796 149 73 28 1752393037
0.423267 -0.246001 -1.35672 149 73 28 1752393037
0.436093 -0.246001 -1.39783 149 73 28 1752393037
0.449721 -0.246001 -1.44152 149 73 28 1752393037
0.739218 -0.391722 -2.36946 177 105 42 1752393037
0.739218 -0.379086 -2.36946 177 105 42 1752393037
0.739218 -0.36645 -2.36946 177 105 42 1752393037
0.739218 -0.353814 -2.36946 177 105 42 1752393037
0.739218 -0.341178 -2.36946 177 105 42 1752393037
0.739218 -0.328541 -2.36946 177 105 42 1752393037
0.739218 -0.315905 -2.36946 177 105 42 1752393037
0.739218 -0.303269 -2.36946 177 105 42 1752393037
0.739218 -0.290633 -2.36946 177 105 42 1752393037
0.739218 -0.277997 -2.36946 177 105 42 1752393037
0.739218 -0.26536 -2.36946 177 105 42 1752393037
0.739218 -0.252724 -2.36946 177 105 42 1752393037
0.739218 -0.240088 -2.36946 177 105 42 1752393037
0.739218 -0.227452 -2.36946 177 105 42 1752393037
0.739218 -0.214816 -2.36946 177 105 42 1752393037
0.739218 -0.202179 -2.36946 177 105 42 1752393037
0.739218 -0.189543 -2.36946 177 105 42 1752393037
0.739218 -0.176907 -2.36946 177 105 42 1752393037
0.739218 -0.164271 -2.36946 177 105 42 1752393037
0.739218 -0.151634 -2.36946 177 105 42 1752393037
0.739218 -0.138998 -2.36946 177 105 42 1752393037
0.739218 -0.126362 -2.36946 177 105 42 1752393037
0.739218 -0.113726 -2.36946 177 105 42 1752393037
0.745262 -0.101916 -2.38883 177 105 42 1752393037
0.745262 -0.089177 -2.38883 177 105 42 1752393037
0.745262 -0.076437 -2.38883 177 105 42 1752393037
0.745262 -0.063698 -2.38883 177 105 42 1752393037
0.741233 -0.050683 -2.37592 177 105 42 1752393037
0.741233 -0.038012 -2.37592 177 105 42 1752393037
0.826783 -0.028266 -2.65013 177 105 42 1752393037
0.933264 -0.015953 -2.99145 204 182 121 1752393037
0.933264 0 -2.99145 204 182 121 1752393037
0.933264 0.015953 -2.99145 204 182 121 1752393037
0.933264 0.031906 -2.99145 204 182 121 1752393037
0.933264 0.04786 -2.99145 204 182 121 1752393037
0.933264 0.063813 -2.99145 204 182 121 1752393037
0.933264 0.079766 -2.99145 204 182 121 1752393037
0.933264 0.095719 -2.99145 204 182 121 1752393037
0.933264 0.111673 -2.99145 204 182 121 1752393037
0.933264 0.127626 -2.99145 204 182 121 1752393037
0.933264 0.143579 -2.99145 204 182 121 1752393037
0.933264 0.159532 -2.99145 204 182 121 1752393037
0.933265 0.175486 -2.99145 204 182 121 1752393037
0.933264 0.191439 -2.99145 204 182 121 1752393037
0.933264 0.207392 -2.99145 204 182 121 1752393037
0.933265 0.223345 -2.99145 204 182 121 1752393037
0.933264 0.239299 -2.99145 204 182 121 1752393037
0.933264 0.255252 -2.99145 204 182 121 1752393037
0.933264 0.271205 -2.99145 204 182 121 1752393037
0.933265 0.287158 -2.99145 204 182 121 1752393037
0.933265 0.303112 -2.99145 204 182 121 1752393037
0.933264 0.319065 -2.99145 204 182 121 1752393037
0.933265 0.335018 -2.99145 204 182 121 1752393037
0.933265 0.350971 -2.99145 204 182 121 1752393037
0.933265 0.366925 -2.99145 204 182 121 1752393037
0.933265 0.382878 -2.99145 204 182 121 1752393037
0.933265 0.398831 -2.99145 204 182 121 1752393037
0.933265 0.414784 -2.99145 204 182 121 1752393037
0.933265 0.430737 -2.99145 204 182 121 1752393037
0.933264 0.446691 -2.99145 204 182 121 1752393037
0.933264 0.462644 -2.99145 204 182 121 1752393037
0.933264 0.478597 -2.99145 204 182 121 1752393037
0.933264 0.49455 -2.99145 204 182 121 1752393037
0.933264 0.510504 -2.99145 204 182 121 1752393037
0.933265 0.526457 -2.99145 204 182 121 1752393037
0.933265 0.54241 -2.99145 204 182 121 1752393037
0.933264 0.558363 -2.99145 204 182 121 1752393037
0.933265 0.574317 -2.99145 204 182 121 1752393037
0.933265 0.59027 -2.99145 204 182 121 1752393037
0.933265 0.606223 -2.99145 204 182 121 1752393037
0.933264 0.622176 -2.99145 204 182 121 1752393037
0.933265 0.63813 -2.99145 204 182 121 1752393037
0.933264 0.654083 -2.99145 204 182 121 1752393037
0.933265 0.670036 -2.99145 204 182 121 1752393037
0.933265 0.685989 -2.99145 204 182 121 1752393037
0.933265 0.701943 -2.99145 204 182 121 1752393037
0.933265 0.717896 -2.99145 204 182 121 1752393037
0.933264 0.733849 -2.99145 204 182 121 1752393037
0.933264 0.749802 -2.99145 204 182 121 1752393037
0.933264 0.765755 -2.99145 204 182 121 1752393037
0.933264 0.781709 -2.99145 204 182 121 1752393037
0.933264 0.797662 -2.99145 204 182 121 1752393037
0.933264 0.813615 -2.99145 204 182 121 1752393037
0.933264 0.829568 -2.99145 204 182 121 1752393037
0.933264 0.845522 -2.99145 204 182 121 1752393037
0.933264 0.861475 -2.99145 204 182 121 1752393037
0.933264 0.877428 -2.99145 204 182 121 1752393037
0.933264 0.893381 -2.99145 204 182 121 1752393037
0.933265 0.909335 -2.99145 204 182 121 1752393037
0.933265 0.925288 -2.99145 204 182 121 1752393037
0.933265 0.941241 -2.99145 204 182 121 1752393037
0.933265 0.957194 -2.99145 204 182 121 1752393037
0.933265 0.973148 -2.99145 204 182 121 1752393037
0.933265 0.989101 -2.99145 204 182 121 1752393037
0.933265 1.00505 -2.99145 204 182 121 1752393037
0.933265 1.02101 -2.99145 204 182 121 1752393037
0.933265 1.03696 -2.99145 204 182 121 1752393037
0.933265 1.05291 -2.99145 204 182 121 1752393037
0.933265 1.06887 -2.99145 204 182 121 1752393037
0.933265 1.08482 -2.99145 204 182 121 1752393037
0.933265 1.10077 -2.99145 204 182 121 1752393037
0.933265 1.11673 -2.99145 204 182 121 1752393037
0.933265 1.13268 -2.99145 204 182 121 1752393037
0.933265 1.14863 -2.99145 204 182 121 1752393037
0.933265 1.16459 -2.99145 204 182 121 1752393037
0.933265 1.18054 -2.99145 204 182 121 1752393037
0.208421 -0.263824 -0.659607 149 73 28 1752393037
0.204703 -0.255663 -0.64784 149 73 28 1752393037
0.204703 -0.252208 -0.64784 149 73 28 1752393037
0.204703 -0.248753 -0.64784 149 73 28 1752393037
0.205289 -0.246001 -0.649696 149 73 28 1752393037
0.208222 -0.246001 -0.658977 149 73 28 1752393037
0.21124 -0.246001 -0.668528 149 73 28 1752393037
0.214346 -0.246001 -0.678359 149 73 28 1752393037
0.217545 -0.246001 -0.688484 149 73 28 1752393037
0.220841 -0.246001 -0.698915 149 73 28 1752393037
0.224239 -0.246001 -0.709668 149 73 28 1752393037
0.227743 -0.246001 -0.720757 149 73 28 1752393037
0.231358 -0.246001 -0.732197 149 73 28 1752393037
0.235089 -0.246001 -0.744007 149 73 28 1752393037
0.238943 -0.246001 -0.756204 149 73 28 1752393037
0.242926 -0.246001 -0.768807 149 73 28 1752393037
0.247043 -0.246001 -0.781838 149 73 28 1752393037
0.251302 -0.246001 -0.795318 149 73 28 1752393037
0.255711 -0.246001 -0.809271 149 73 28 1752393037
0.260278 -0.246001 -0.823722 149 73 28 1752393037
0.26501 -0.246001 -0.838699 149 73 28 1752393037
0.269917 -0.246001 -0.85423 149 73 28 1752393037
0.27501 -0.246001 -0.870348 149 73 28 1752393037
0.280299 -0.246001 -0.887085 149 73 28 1752393037
0.285795 -0.246001 -0.904479 149 73 28 1752393037
0.291511 -0.246001 -0.922569 149 73 28 1752393037
0.29746 -0.246001 -0.941397 149 73 28 1752393037
0.303657 -0.246001 -0.961009 149 73 28 1752393037
0.310118 -0.246001 -0.981456 149 73 28 1752393037
0.31686 -0.246001 -1.00279 149 73 28 1752393037
0.323901 -0.246001 -1.02508 149 73 28 1752393037
0.331263 -0.246001 -1.04837 149 73 28 1752393037
0.338966 -0.246001 -1.07275 149 73 28 1752393037
0.347037 -0.246001 -1.0983 149 73 28 1752393037
0.355501 -0.246001 -1.12508 149 73 28 1752393037
0.364389 -0.246001 -1.15321 149 73 28 1752393037
0.373732 -0.246001 -1.18278 149 73 28 1752393037
0.383567 -0.246001 -1.21391 149 73 28 1752393037
0.393934 -0.246001 -1.24672 149 73 28 1752393037
0.404877 -0.246001 -1.28135 149 73 28 1752393037
0.416445 -0.246001 -1.31796 149 73 28 1752393037
0.428693 -0.246001 -1.35672 149 73 28 1752393037
0.441684 -0.246001 -1.39783 149 73 28 1752393037
0.455487 -0.246001 -1.44152 149 73 28 1752393037
0.747233 -0.390957 -2.36483 177 105 42 1752393037
0.747233 -0.378346 -2.36483 177 105 42 1752393037
0.747233 -0.365734 -2.36483 177 105 42 1752393037
0.747233 -0.353123 -2.36483 177 105 42 1752393037
0.747233 -0.340511 -2.36483 177 105 42 1752393037
0.747233 -0.3279 -2.36483 177 105 42 1752393037
0.747233 -0.315288 -2.36483 177 105 42 1752393037
0.747233 -0.302677 -2.36483 177 105 42 1752393037
0.747233 -0.290065 -2.36483 177 105 42 1752393037
0.747233 -0.277454 -2.36483 177 105 42 1752393037
0.747233 -0.264842 -2.36483 177 105 42 1752393037
0.747233 -0.252231 -2.36483 177 105 42 1752393037
0.747233 -0.239619 -2.36483 177 105 42 1752393037
0.747233 -0.227008 -2.36483 177 105 42 1752393037
0.747233 -0.214396 -2.36483 177 105 42 1752393037
0.747233 -0.201784 -2.36483 177 105 42 1752393037
0.747233 -0.189173 -2.36483 177 105 42 1752393037
0.747233 -0.176561 -2.36483 177 105 42 1752393037
0.747233 -0.16395 -2.36483 177 105 42 1752393037
0.747233 -0.151338 -2.36483 177 105 42 1752393037
0.747233 -0.138727 -2.36483 177 105 42 1752393037
0.747233 -0.126115 -2.36483 177 105 42 1752393037
0.747233 -0.113504 -2.36483 177 105 42 1752393037
0.753343 -0.101717 -2.38417 177 105 42 1752393037
0.753343 -0.089003 -2.38417 177 105 42 1752393037
0.753343 -0.076288 -2.38417 177 105 42 1752393037
0.753343 -0.063573 -2.38417 177 105 42 1752393037
0.74927 -0.050584 -2.37128 177 105 42 1752393037
0.74927 -0.037938 -2.37128 177 105 42 1752393037
0.837383 -0.028266 -2.65013 177 105 42 1752393037
0.947899 -0.015998 -2.9999 204 182 121 1752393037
0.947899 0 -2.9999 204 182 121 1752393037
0.947899 0.015998 -2.9999 204 182 121 1752393037
0.947899 0.031997 -2.9999 204 182 121 1752393037
0.947899 0.047995 -2.9999 204 182 121 1752393037
0.947899 0.063993 -2.9999 204 182 121 1752393037
0.947899 0.079991 -2.9999 204 182 121 1752393037
0.947899 0.09599 -2.9999 204 182 121 1752393037
0.947899 0.111988 -2.9999 204 182 121 1752393037
0.947899 0.127986 -2.9999 204 182 121 1752393037
0.947899 0.143985 -2.9999 204 182 121 1752393037
0.947899 0.159983 -2.9999 204 182 121 1752393037
0.947899 0.175981 -2.9999 204 182 121 1752393037
0.947899 0.19198 -2.9999 204 182 121 1752393037
0.947899 0.207978 -2.9999 204 182 121 1752393037
0.947899 0.223976 -2.9999 204 182 121 1752393037
0.947899 0.239974 -2.9999 204 182 121 1752393037
0.947899 0.255973 -2.9999 204 182 121 1752393037
0.947899 0.271971 -2.9999 204 182 121 1752393037
0.947899 0.287969 -2.9999 204 182 121 1752393037
0.947899 0.303968 -2.9999 204 182 121 1752393037
0.947899 0.319966 -2.9999 204 182 121 1752393037
0.947899 0.335964 -2.9999 204 182 121 1752393037
0.947899 0.351963 -2.9999 204 182 121 1752393037
0.947899 0.367961 -2.9999 204 182 121 1752393037
0.947899 0.383959 -2.9999 204 182 121 1752393037
0.947899 0.399958 -2.9999 204 182 121 1752393037
0.947899 0.415956 -2.9999 204 182 121 1752393037
0.947899 0.431954 -2.9999 204 182 121 1752393037
0.947899 0.447952 -2.9999 204 182 121 1752393037
0.947899 0.463951 -2.9999 204 182 121 1752393037
0.947899 0.479949 -2.9999 204 182 121 1752393037
0.947899 0.495947 -2.9999 204 182 121 1752393037
0.947899 0.511946 -2.9999 204 182 121 1752393037
0.947899 0.527944 -2.9999 204 182 121 1752393037
0.947899 0.543942 -2.9999 204 182 121 1752393037
0.947899 0.559941 -2.9999 204 182 121 1752393037
0.947899 0.575939 -2.9999 204 182 121 1752393037
0.947899 0.591937 -2.9999 204 182 121 1752393037
0.947899 0.607935 -2.9999 204 182 121 1752393037
0.947899 0.623934 -2.9999 204 182 121 1752393037
0.947899 0.639932 -2.9999 204 182 121 1752393037
0.947899 0.65593 -2.9999 204 182 121 1752393037
0.947899 0.671929 -2.9999 204 182 121 1752393037
0.947899 0.687927 -2.9999 204 182 121 1752393037
0.947899 0.703925 -2.9999 204 182 121 1752393037
0.947899 0.719923 -2.9999 204 182 121 1752393037
0.947899 0.735922 -2.9999 204 182 121 1752393037
0.947899 0.75192 -2.9999 204 182 121 1752393037
0.947899 0.767918 -2.9999 204 182 121 1752393037
0.947899 0.783917 -2.9999 204 182 121 1752393037
0.947899 0.799915 -2.9999 204 182 121 1752393037
0.947899 0.815913 -2.9999 204 182 121 1752393037
0.947899 0.831911 -2.9999 204 182 121 1752393037
0.947899 0.84791 -2.9999 204 182 121 1752393037
0.947899 0.863908 -2.9999 204 182 121 1752393037
0.947899 0.879906 -2.9999 204 182 121 1752393037
0.947899 0.895905 -2.9999 204 182 121 1752393037
0.947899 0.911903 -2.9999 204 182 121 1752393037
0.947899 0.927901 -2.9999 204 182 121 1752393037
0.947899 0.9439 -2.9999 204 182 121 1752393037
0.947899 0.959898 -2.9999 204 182 121 1752393037
0.947899 0.975896 -2.9999 204 182 121 1752393037
0.947899 0.991895 -2.9999 204 182 121 1752393037
0.947899 1.00789 -2.9999 204 182 121 1752393037
0.947899 1.02389 -2.9999 204 182 121 1752393037
0.947899 1.03989 -2.9999 204 182 121 1752393037
0.947899 1.05589 -2.9999 204 182 121 1752393037
0.947899 1.07189 -2.9999 204 182 121 1752393037
0.947899 1.08788 -2.9999 204 182 121 1752393037
0.947899 1.10388 -2.9999 204 182 121 1752393037
0.947899 1.11988 -2.9999 204 182 121 1752393037
0.947899 1.13588 -2.9999 204 182 121 1752393037
0.947899 1.15188 -2.9999 204 182 121 1752393037
0.947899 1.16788 -2.9999 204 182 121 1752393037
0.947899 1.18387 -2.9999 204 182 121 1752393037
0.210539 -0.263174 -0.657982 149 73 28 1752393037
0.206783 -0.255033 -0.646244 149 73 28 1752393037
0.206783 -0.251586 -0.646244 149 73 28 1752393037
0.206783 -0.24814 -0.646244 149 73 28 1752393037
0.207888 -0.246001 -0.649696 149 73 28 1752393037
0.210858 -0.246001 -0.658977 149 73 28 1752393037
0.213914 -0.246001 -0.668528 149 73 28 1752393037
0.217059 -0.246001 -0.678359 149 73 28 1752393037
0.220299 -0.246001 -0.688484 149 73 28 1752393037
0.223637 -0.246001 -0.698915 149 73 28 1752393037
0.227078 -0.246001 -0.709668 149 73 28 1752393037
0.230626 -0.246001 -0.720756 149 73 28 1752393037
0.234286 -0.246001 -0.732197 149 73 28 1752393037
0.238065 -0.246001 -0.744007 149 73 28 1752393037
0.241968 -0.246001 -0.756204 149 73 28 1752393037
0.246001 -0.246001 -0.768807 149 73 28 1752393037
0.25017 -0.246001 -0.781838 149 73 28 1752393037
0.254483 -0.246001 -0.795318 149 73 28 1752393037
0.258948 -0.246001 -0.809271 149 73 28 1752393037
0.263572 -0.246001 -0.823722 149 73 28 1752393037
0.268364 -0.246001 -0.838699 149 73 28 1752393037
0.273334 -0.246001 -0.85423 149 73 28 1752393037
0.278491 -0.246001 -0.870348 149 73 28 1752393037
0.283847 -0.246001 -0.887085 149 73 28 1752393037
0.289413 -0.246001 -0.904479 149 73 28 1752393037
0.295201 -0.246001 -0.922569 149 73 28 1752393037
0.301226 -0.246001 -0.941397 149 73 28 1752393037
0.307501 -0.246001 -0.961009 149 73 28 1752393037
0.314044 -0.246001 -0.981457 149 73 28 1752393037
0.320871 -0.246001 -1.00279 149 73 28 1752393037
0.328001 -0.246001 -1.02508 149 73 28 1752393037
0.335456 -0.246001 -1.04837 149 73 28 1752393037
0.343257 -0.246001 -1.07275 149 73 28 1752393037
0.35143 -0.246001 -1.0983 149 73 28 1752393037
0.360001 -0.246001 -1.12508 149 73 28 1752393037
0.369002 -0.246001 -1.15321 149 73 28 1752393037
0.378463 -0.246001 -1.18278 149 73 28 1752393037
0.388423 -0.246001 -1.21391 149 73 28 1752393037
0.398921 -0.246001 -1.24672 149 73 28 1752393037
0.410002 -0.246001 -1.28135 149 73 28 1752393037
0.421716 -0.246001 -1.31796 149 73 28 1752393037
0.43412 -0.246001 -1.35672 149 73 28 1752393037
0.447275 -0.246001 -1.39783 149 73 28 1752393037
0.461252 -0.246001 -1.44152 149 73 28 1752393037
0.755217 -0.390195 -2.36022 177 105 42 1752393037
0.755217 -0.377608 -2.36022 177 105 42 1752393037
0.755217 -0.365021 -2.36022 177 105 42 1752393037
0.755217 -0.352435 -2.36022 177 105 42 1752393037
0.755217 -0.339848 -2.36022 177 105 42 1752393037
0.755217 -0.327261 -2.36022 177 105 42 1752393037
0.755217 -0.314674 -2.36022 177 105 42 1752393037
0.755217 -0.302087 -2.36022 177 105 42 1752393037
0.755217 -0.2895 -2.36022 177 105 42 1752393037
0.755217 -0.276913 -2.36022 177 105 42 1752393037
0.755217 -0.264326 -2.36022 177 105 42 1752393037
0.755217 -0.251739 -2.36022 177 105 42 1752393037
0.755217 -0.239152 -2.36022 177 105 42 1752393037
0.755217 -0.226565 -2.36022 177 105 42 1752393037
0.755217 -0.213978 -2.36022 177 105 42 1752393037
0.755217 -0.201391 -2.36022 177 105 42 1752393037
0.755217 -0.188804 -2.36022 177 105 42 1752393037
0.755217 -0.176217 -2.36022 177 105 42 1752393037
0.755217 -0.16363 -2.36022 177 105 42 1752393037
0.755217 -0.151043 -2.36022 177 105 42 1752393037
0.755217 -0.138456 -2.36022 177 105 42 1752393037
0.755217 -0.125869 -2.36022 177 105 42 1752393037
0.755217 -0.113283 -2.36022 177 105 42 1752393037
0.761392 -0.101519 -2.37952 177 105 42 1752393037
0.761392 -0.088829 -2.37952 177 105 42 1752393037
0.761392 -0.076139 -2.37952 177 105 42 1752393037
0.761392 -0.063449 -2.37952 177 105 42 1752393037
0.757275 -0.050485 -2.36665 177 105 42 1752393037
0.757275 -0.037864 -2.36665 177 105 42 1752393037
0.847983 -0.028266 -2.65014 177 105 42 1752393037
0.962617 -0.016044 -3.00839 204 182 121 1752393037
0.962617 0 -3.00839 204 182 121 1752393037
0.962617 0.016044 -3.00839 204 182 121 1752393037
0.962617 0.032087 -3.00839 204 182 121 1752393037
0.962617 0.048131 -3.00839 204 182 121 1752393037
0.962617 0.064174 -3.00839 204 182 121 1752393037
0.962617 0.080218 -3.00839 204 182 121 1752393037
0.962617 0.096262 -3.00839 204 182 121 1752393037
0.962617 0.112305 -3.00839 204 182 121 1752393037
0.962617 0.128349 -3.00839 204 182 121 1752393037
0.962617 0.144393 -3.00839 204 182 121 1752393037
0.962617 0.160436 -3.00839 204 182 121 1752393037
0.962617 0.17648 -3.00839 204 182 121 1752393037
0.962617 0.192523 -3.00839 204 182 121 1752393037
0.962617 0.208567 -3.00839 204 182 121 1752393037
0.962617 0.224611 -3.00839 204 182 121 1752393037
0.962617 0.240654 -3.00839 204 182 121 1752393037
0.962617 0.256698 -3.00839 204 182 121 1752393037
0.962617 0.272741 -3.00839 204 182 121 1752393037
0.962617 0.288785 -3.00839 204 182 121 1752393037
0.962617 0.304829 -3.00839 204 182 121 1752393037
0.962617 0.320872 -3.00839 204 182 121 1752393037
0.962617 0.336916 -3.00839 204 182 121 1752393037
0.962617 0.352959 -3.00839 204 182 121 1752393037
0.962617 0.369003 -3.00839 204 182 121 1752393037
0.962617 0.385047 -3.00839 204 182 121 1752393037
0.962617 0.40109 -3.00839 204 182 121 1752393037
0.962617 0.417134 -3.00839 204 182 121 1752393037
0.962617 0.433178 -3.00839 204 182 121 1752393037
0.962617 0.449221 -3.00839 204 182 121 1752393037
0.962617 0.465265 -3.00839 204 182 121 1752393037
0.962617 0.481308 -3.00839 204 182 121 1752393037
0.962617 0.497352 -3.00839 204 182 121 1752393037
0.962617 0.513396 -3.00839 204 182 121 1752393037
0.962617 0.529439 -3.00839 204 182 121 1752393037
0.962617 0.545483 -3.00839 204 182 121 1752393037
0.962617 0.561527 -3.00839 204 182 121 1752393037
0.962617 0.57757 -3.00839 204 182 121 1752393037
0.962617 0.593614 -3.00839 204 182 121 1752393037
0.962617 0.609657 -3.00839 204 182 121 1752393037
0.962617 0.625701 -3.00839 204 182 121 1752393037
0.962617 0.641745 -3.00839 204 182 121 1752393037
0.962617 0.657788 -3.00839 204 182 121 1752393037
0.962617 0.673832 -3.00839 204 182 121 1752393037
0.962617 0.689875 -3.00839 204 182 121 1752393037
0.962617 0.705919 -3.00839 204 182 121 1752393037
0.962617 0.721963 -3.00839 204 182 121 1752393037
0.962617 0.738006 -3.00839 204 182 121 1752393037
0.962617 0.75405 -3.00839 204 182 121 1752393037
0.962617 0.770094 -3.00839 204 182 121 1752393037
0.962617 0.786137 -3.00839 204 182 121 1752393037
0.962617 0.802181 -3.00839 204 182 121 1752393037
0.962617 0.818224 -3.00839 204 182 121 1752393037
0.962617 0.834268 -3.00839 204 182 121 1752393037
0.962617 0.850312 -3.00839 204 182 121 1752393037
0.962617 0.866355 -3.00839 204 182 121 1752393037
0.962617 0.882399 -3.00839 204 182 121 1752393037
0.962617 0.898442 -3.00839 204 182 121 1752393037
0.962617 0.914486 -3.00839 204 182 121 1752393037
0.962617 0.93053 -3.00839 204 182 121 1752393037
0.962617 0.946573 -3.00839 204 182 121 1752393037
0.962617 0.962617 -3.00839 204 182 121 1752393037
0.962617 0.97866 -3.00839 204 182 121 1752393037
0.962617 0.994704 -3.00839 204 182 121 1752393037
0.962617 1.01075 -3.00839 204 182 121 1752393037
0.962617 1.02679 -3.00839 204 182 121 1752393037
0.962617 1.04283 -3.00839 204 182 121 1752393037
0.962617 1.05888 -3.00839 204 182 121 1752393037
0.962617 1.07492 -3.00839 204 182 121 1752393037
0.962617 1.09097 -3.00839 204 182 121 1752393037
0.962617 1.10701 -3.00839 204 182 121 1752393037
0.962617 1.12305 -3.00839 204 182 121 1752393037
0.962617 1.1391 -3.00839 204 182 121 1752393037
0.962617 1.15514 -3.00839 204 182 121 1752393037
0.962617 1.17118 -3.00839 204 182 121 1752393037
0.962617 1.18723 -3.00839 204 182 121 1752393037
0.212647 -0.262527 -0.656365 149 73 28 1752393037
0.208853 -0.254406 -0.644655 149 73 28 1752393037
0.208853 -0.250968 -0.644655 149 73 28 1752393037
0.208853 -0.24753 -0.644655 149 73 28 1752393037
0.210486 -0.246001 -0.649696 149 73 28 1752393037
0.213493 -0.246001 -0.658977 149 73 28 1752393037
0.216587 -0.246001 -0.668528 149 73 28 1752393037
0.219773 -0.246001 -0.678359 149 73 28 1752393037
0.223053 -0.246001 -0.688484 149 73 28 1752393037
0.226432 -0.246001 -0.698915 149 73 28 1752393037
0.229916 -0.246001 -0.709668 149 73 28 1752393037
0.233508 -0.246001 -0.720756 149 73 28 1752393037
0.237215 -0.246001 -0.732197 149 73 28 1752393037
0.241041 -0.246001 -0.744007 149 73 28 1752393037
0.244992 -0.246001 -0.756204 149 73 28 1752393037
0.249076 -0.246001 -0.768807 149 73 28 1752393037
0.253297 -0.246001 -0.781838 149 73 28 1752393037
0.257665 -0.246001 -0.795318 149 73 28 1752393037
0.262185 -0.246001 -0.809271 149 73 28 1752393037
0.266867 -0.246001 -0.823722 149 73 28 1752393037
0.271719 -0.246001 -0.838699 149 73 28 1752393037
0.276751 -0.246001 -0.85423 149 73 28 1752393037
0.281973 -0.246001 -0.870348 149 73 28 1752393037
0.287395 -0.246001 -0.887085 149 73 28 1752393037
0.29303 -0.246001 -0.904479 149 73 28 1752393037
0.298891 -0.246001 -0.922569 149 73 28 1752393037
0.304991 -0.246001 -0.941397 149 73 28 1752393037
0.311345 -0.246001 -0.961009 149 73 28 1752393037
0.317969 -0.246001 -0.981456 149 73 28 1752393037
0.324882 -0.246001 -1.00279 149 73 28 1752393037
0.332101 -0.246001 -1.02508 149 73 28 1752393037
0.339649 -0.246001 -1.04837 149 73 28 1752393037
0.347548 -0.246001 -1.07275 149 73 28 1752393037
0.355823 -0.246001 -1.0983 149 73 28 1752393037
0.364501 -0.246001 -1.12508 149 73 28 1752393037
0.373614 -0.246001 -1.15321 149 73 28 1752393037
0.383194 -0.246001 -1.18278 149 73 28 1752393037
0.393278 -0.246001 -1.21391 149 73 28 1752393037
0.403907 -0.246001 -1.24672 149 73 28 1752393037
0.415127 -0.246001 -1.28135 149 73 28 1752393037
0.426988 -0.246001 -1.31796 149 73 28 1752393037
0.439546 -0.246001 -1.35672 149 73 28 1752393037
0.452866 -0.246001 -1.39783 149 73 28 1752393037
0.467018 -0.246001 -1.44152 149 73 28 1752393037
0.76317 -0.389436 -2.35563 177 105 42 1752393037
0.76317 -0.376874 -2.35563 177 105 42 1752393037
0.76317 -0.364311 -2.35563 177 105 42 1752393037
0.76317 -0.351749 -2.35563 177 105 42 1752393037
0.76317 -0.339186 -2.35563 177 105 42 1752393037
0.76317 -0.326624 -2.35563 177 105 42 1752393037
0.76317 -0.314062 -2.35563 177 105 42 1752393037
0.76317 -0.301499 -2.35563 177 105 42 1752393037
0.76317 -0.288937 -2.35563 177 105 42 1752393037
0.76317 -0.276374 -2.35563 177 105 42 1752393037
0.76317 -0.263812 -2.35563 177 105 42 1752393037
0.76317 -0.251249 -2.35563 177 105 42 1752393037
0.76317 -0.238687 -2.35563 177 105 42 1752393037
0.76317 -0.226124 -2.35563 177 105 42 1752393037
0.76317 -0.213562 -2.35563 177 105 42 1752393037
0.76317 -0.200999 -2.35563 177 105 42 1752393037
0.76317 -0.188437 -2.35563 177 105 42 1752393037
0.76317 -0.175874 -2.35563 177 105 42 1752393037
0.763169 -0.163312 -2.35563 177 105 42 1752393037
0.76317 -0.15075 -2.35563 177 105 42 1752393037
0.76317 -0.138187 -2.35563 177 105 42 1752393037
0.76317 -0.125625 -2.35563 177 105 42 1752393037
0.76317 -0.113062 -2.35563 177 105 42 1752393037
0.76941 -0.101321 -2.37489 177 105 42 1752393037
0.76941 -0.088656 -2.37489 177 105 42 1752393037
0.76941 -0.075991 -2.37489 177 105 42 1752393037
0.76941 -0.063326 -2.37489 177 105 42 1752393037
0.76525 -0.050387 -2.36205 177 105 42 1752393037
0.76525 -0.03779 -2.36205 177 105 42 1752393037
0.858583 -0.028266 -2.65014 177 105 42 1752393037
0.977418 -0.016089 -3.01694 204 182 121 1752393037
0.977418 0 -3.01694 204 182 121 1752393037
0.977418 0.016089 -3.01694 204 182 121 1752393037
0.977418 0.032178 -3.01694 204 182 121 1752393037
0.977418 0.048268 -3.01694 204 182 121 1752393037
0.977418 0.064357 -3.01694 204 182 121 1752393037
0.977418 0.080446 -3.01694 204 182 121 1752393037
0.977418 0.096535 -3.01694 204 182 121 1752393037
0.977418 0.112624 -3.01694 204 182 121 1752393037
0.977418 0.128713 -3.01694 204 182 121 1752393037
0.977418 0.144803 -3.01694 204 182 121 1752393037
0.977418 0.160892 -3.01694 204 182 121 1752393037
0.977418 0.176981 -3.01694 204 182 121 1752393037
0.977418 0.19307 -3.01694 204 182 121 1752393037
0.977418 0.209159 -3.01694 204 182 121 1752393037
0.977418 0.225249 -3.01694 204 182 121 1752393037
0.977418 0.241338 -3.01694 204 182 121 1752393037
0.977418 0.257427 -3.01694 204 182 121 1752393037
0.977418 0.273516 -3.01694 204 182 121 1752393037
0.977418 0.289605 -3.01694 204 182 121 1752393037
0.977418 0.305695 -3.01694 204 182 121 1752393037
0.977418 0.321784 -3.01694 204 182 121 1752393037
0.977418 0.337873 -3.01694 204 182 121 1752393037
0.977418 0.353962 -3.01694 204 182 121 1752393037
0.977418 0.370051 -3.01694 204 182 121 1752393037
0.977418 0.38614 -3.01694 204 182 121 1752393037
0.977418 0.40223 -3.01694 204 182 121 1752393037
